ply 
format ascii 1.0 
comment github.com/mikedh/trimesh 
element vertex 832
property float x 
property float y 
property float z 
property float nx 
property float ny 
property float nz 
element face 0
property list uchar int vertex_indices 
end_header
-0.181520 0.323731 0.049887 0.987831 0.153507 0.024995
0.185734 -0.061242 -0.044202 0.022752 0.999705 -0.008535
0.113169 -0.084134 -0.205786 0.033641 0.025468 -0.999109
-0.189272 0.354331 0.029654 0.980095 0.190245 -0.056757
-0.027550 -0.064616 0.186612 -0.047424 0.998452 -0.029071
0.124876 -0.149575 0.199032 0.027399 -0.999148 -0.030857
0.239274 -0.279801 -0.214788 -0.203675 0.000858 -0.979038
0.175271 -0.146843 0.156757 0.035601 -0.996602 -0.074274
0.284996 -0.083692 0.022674 0.999281 -0.003283 -0.037775
-0.149577 0.048851 0.052133 0.999217 0.030104 0.025690
-0.151883 0.085276 -0.076236 0.992135 0.123385 0.021054
-0.222949 0.210359 -0.182437 -0.816961 -0.133567 -0.561013
-0.238692 0.306224 -0.014847 -0.978413 -0.201119 0.047536
0.082078 -0.148926 -0.204804 0.020925 -0.999047 -0.038308
-0.008499 -0.147402 -0.005435 0.007454 -0.999407 -0.033611
-0.132878 -0.065279 -0.126960 -0.033604 0.997771 0.057659
-0.163678 0.202221 0.108649 0.994235 0.107225 0.000178
-0.050206 -0.062352 -0.158425 -0.051344 0.997998 -0.036920
0.284442 -0.063700 -0.130612 0.941746 0.331398 -0.057357
-0.016885 -0.144333 0.070322 0.007569 -0.998710 -0.050214
-0.056974 -0.063156 0.125471 -0.058529 0.998284 0.001665
-0.173972 -0.109261 0.191121 -0.077863 -0.034844 0.996355
-0.231527 0.296959 0.186010 0.019458 -0.021066 0.999589
-0.197348 0.136000 0.183241 0.010525 -0.088104 0.996056
-0.185639 0.320571 -0.071093 0.967976 0.250302 -0.019295
0.259513 -0.491677 0.182521 0.097473 -0.031439 -0.994741
-0.182568 -0.220629 -0.178175 0.989234 0.043118 0.139846
-0.226805 -0.067016 -0.082514 -0.999366 -0.022472 -0.027598
-0.188910 0.350268 -0.026766 0.980785 0.192590 -0.031150
0.057053 -0.144273 0.099372 0.004889 -0.999637 0.026501
-0.058211 -0.142667 -0.197186 -0.043472 -0.340512 -0.939235
-0.209839 0.429299 -0.104386 0.972040 0.234764 -0.005005
0.018786 -0.063710 -0.196771 0.066618 0.818240 -0.571003
-0.089887 -0.094026 0.196563 -0.099994 0.034891 0.994376
0.179407 -0.086182 0.215789 -0.061031 0.007868 0.998105
0.261201 -0.499627 -0.187813 0.002284 -0.885171 0.465260
0.098528 -0.149527 -0.085787 0.026307 -0.999644 0.004429
0.055611 -0.066035 -0.009894 -0.026808 0.999619 0.006609
-0.207960 0.435441 0.108366 0.958566 0.274758 -0.075223
0.250541 -0.224299 -0.174032 0.020089 -0.033233 0.999246
0.136503 -0.145987 -0.174547 0.001939 -0.999701 -0.024391
-0.076619 -0.147697 0.041439 0.030858 -0.998480 0.045669
-0.174443 0.262013 0.035444 0.980254 0.185183 0.069351
0.283756 -0.073167 -0.112264 0.983228 0.176830 -0.044663
-0.221073 0.007134 0.138065 -0.993293 0.115605 0.002217
-0.153940 0.111783 -0.042313 0.989587 0.139657 0.034830
-0.218650 0.115336 -0.066330 -0.999627 -0.024257 -0.012512
-0.205881 -0.489448 -0.148651 -0.244377 -0.112935 0.963081
0.126687 -0.090946 0.206365 -0.077078 -0.053439 0.995592
-0.178469 -0.370115 -0.180955 0.993780 0.005502 -0.111229
-0.146531 0.017016 0.141230 0.991223 0.070128 0.112071
0.194613 -0.146166 -0.182838 -0.039336 -0.995148 0.090189
0.247046 -0.171496 0.213385 -0.123798 0.033275 0.991749
-0.216474 0.106289 0.091248 -0.999974 0.002691 -0.006621
0.063130 -0.147198 0.130446 -0.010263 -0.999144 -0.040072
-0.226014 0.278017 0.184436 -0.208363 -0.039614 0.977249
-0.035650 -0.148134 -0.151857 -0.032446 -0.999427 -0.009684
-0.047605 -0.147751 0.043120 -0.037770 -0.999281 0.003433
0.244976 -0.192175 -0.211883 -0.096214 -0.018826 -0.995183
-0.163000 0.191452 0.020183 0.992037 0.121843 -0.031887
0.043080 -0.146587 0.088731 -0.000449 -1.000000 -0.000779
0.247565 -0.442966 -0.182360 0.127671 0.043356 0.990869
-0.188480 -0.107290 0.187976 -0.033993 0.024211 0.999129
-0.197331 -0.043131 -0.189908 0.005868 -0.094891 -0.995470
-0.204759 0.396692 0.186972 -0.011599 -0.062168 0.997998
0.271260 -0.342828 0.193003 0.998549 -0.051118 -0.016921
-0.148503 0.019974 -0.016272 0.999622 -0.024584 -0.012281
-0.147539 -0.005865 -0.055426 0.997127 0.048789 -0.057935
0.023658 -0.100212 -0.206591 -0.019890 -0.139568 -0.990013
-0.224952 0.209181 0.029221 -0.991458 -0.121883 0.046422
-0.217060 -0.136799 0.187131 -0.029127 -0.060233 0.997759
-0.041942 -0.065677 0.154825 -0.041107 0.996879 0.067396
0.259190 -0.066526 -0.220401 0.161794 0.018155 -0.986658
-0.067201 -0.065681 0.114269 -0.037898 0.994716 -0.095415
-0.217565 0.023258 0.119220 -0.989304 0.141621 -0.034937
0.113552 -0.063065 -0.102153 -0.015890 0.998210 0.057649
-0.185449 0.324163 0.179069 0.981206 0.192962 0.000769
-0.214735 0.106995 0.083067 -0.999905 -0.008507 0.010868
0.257270 -0.323453 -0.178036 0.000031 -0.021501 0.999769
-0.048130 -0.119670 -0.197481 -0.074454 -0.052624 -0.995835
0.245044 -0.146892 0.044467 0.016525 -0.999732 0.016213
-0.211530 -0.494167 0.167946 -0.352258 -0.909900 0.219082
0.201602 -0.072444 -0.212639 -0.054609 0.004884 -0.998496
-0.118936 -0.148607 -0.183156 -0.023391 -0.998907 -0.040456
-0.187930 -0.231154 0.185482 -0.006300 0.014014 0.999882
-0.239971 0.311276 -0.092497 -0.983150 -0.178825 -0.037915
0.110931 -0.146825 0.068313 -0.033823 -0.998895 0.032623
-0.149094 0.031018 -0.085398 0.999398 0.034663 -0.001349
-0.221156 -0.014303 0.028341 -0.996091 0.087312 0.013382
-0.168447 0.245001 -0.147668 0.986062 0.166378 -0.000003
0.241180 -0.429006 -0.202717 -0.901815 0.025219 0.431386
-0.228267 -0.052708 -0.084726 -0.992329 0.114739 -0.046031
0.008741 -0.063208 -0.151766 0.076246 0.997037 0.010180
-0.185642 0.340344 -0.124021 0.963881 0.261487 0.050586
0.227329 -0.065126 0.098556 0.052745 0.998607 -0.001484
-0.063097 -0.061873 0.000157 0.035300 0.999007 -0.027177
-0.219244 0.096464 0.018701 -0.997538 0.020837 -0.066962
-0.169936 0.142016 -0.184829 -0.039493 -0.003032 -0.999215
-0.222428 -0.226547 0.174498 -0.697975 -0.088130 0.710679
0.178308 -0.063322 0.064944 0.003604 0.999970 -0.006888
-0.182637 -0.416295 -0.170662 0.978756 -0.021893 0.203854
0.266018 -0.183271 0.212596 -0.117046 -0.023526 0.992848
-0.167839 0.227164 -0.147452 0.993894 0.107225 0.026027
-0.145706 -0.059620 -0.066646 0.821122 0.570673 0.009563
-0.185144 -0.207024 0.183291 0.440162 0.101007 0.892219
-0.210427 0.448762 0.138963 0.969777 0.225982 -0.092003
-0.179894 0.164544 -0.188447 0.055731 -0.017103 -0.998299
-0.110454 -0.063478 0.180758 0.962723 0.268336 -0.034060
-0.154213 0.150024 0.179941 0.988937 0.145307 -0.029830
-0.110637 -0.081184 -0.191994 -0.074988 0.008955 -0.997144
-0.198741 0.185101 -0.188778 0.030610 -0.105735 -0.993923
-0.170633 0.242659 -0.164332 0.984517 0.174829 -0.012668
-0.154890 0.125192 -0.085892 0.996093 0.086609 -0.017230
0.236419 -0.146533 -0.034863 0.001219 -0.999991 -0.004026
0.128390 -0.149558 -0.191482 0.129569 -0.989871 0.058020
-0.231288 0.296004 -0.183531 -0.581463 -0.081813 -0.809449
-0.149924 -0.085748 -0.190708 -0.035791 -0.121729 -0.991918
-0.216848 0.049287 -0.018164 -0.999342 0.025932 -0.025372
0.233792 -0.227923 -0.189169 -0.996237 -0.045429 -0.073817
-0.168430 0.239902 -0.077914 0.988765 0.149036 0.011489
-0.074963 -0.145353 -0.074626 0.007313 -0.996934 -0.077902
-0.223688 -0.084789 -0.179737 -0.947659 -0.103462 -0.302056
0.269916 -0.372680 -0.185638 0.902520 0.066633 0.425461
-0.170786 -0.069003 -0.193200 0.011373 0.065821 -0.997767
0.257680 -0.305515 -0.176827 0.091820 0.024917 0.995464
-0.281139 0.468647 -0.140536 -0.971019 -0.235982 0.037873
-0.082875 -0.147312 -0.089623 -0.023542 -0.999703 -0.006260
-0.170105 0.183790 -0.182853 0.184740 -0.010921 -0.982727
-0.065135 -0.063926 -0.079518 -0.006458 0.999975 -0.002745
-0.206804 -0.228290 0.187327 -0.232635 0.013194 0.972475
0.064375 -0.060471 -0.114837 -0.016694 0.996238 0.085042
-0.068376 -0.074266 -0.192673 -0.112602 -0.096187 -0.988974
-0.167228 0.232949 0.133655 0.984250 0.176744 0.003644
-0.225213 -0.042751 0.112943 -0.993540 0.097136 -0.058683
-0.183920 -0.395558 0.164294 0.998288 -0.022905 0.053816
-0.215904 0.163109 -0.189323 -0.998082 -0.060892 -0.011128
-0.236641 0.303092 0.184986 -0.785959 -0.178112 0.592068
-0.222219 0.479224 -0.142517 0.959186 0.282559 -0.011109
-0.189470 -0.213280 0.146975 0.107169 -0.000254 -0.994241
-0.070555 -0.104693 0.193005 -0.106345 -0.032352 0.993803
-0.196114 -0.316759 -0.184485 0.102908 0.038846 -0.993932
-0.189714 0.353200 -0.004056 0.977846 0.209254 -0.005526
0.237419 -0.144427 0.008032 -0.002977 -0.995415 0.095599
0.269748 -0.147255 -0.082098 0.326782 -0.945086 0.005012
-0.193690 0.368187 -0.112428 0.976817 0.211398 -0.033753
-0.015548 -0.063793 0.128011 0.013869 0.999629 0.023457
0.281822 -0.148008 -0.149121 0.378267 -0.924797 -0.040804
-0.016905 -0.109851 -0.203369 -0.021118 -0.013216 -0.999690
0.256198 -0.442650 0.211794 -0.034045 0.048543 0.998241
-0.219046 0.064295 0.127215 -0.999834 0.013340 -0.012443
-0.039379 -0.063412 0.102544 0.015472 0.999369 0.031984
-0.174049 0.256953 0.059508 0.984637 0.174440 0.007803
0.283762 -0.067252 0.014127 0.999760 -0.013968 0.016875
-0.219993 0.043688 0.114329 -0.998656 0.045970 0.023932
-0.170073 0.260108 0.173193 0.978476 0.164443 0.124671
-0.174999 0.261411 -0.151668 0.984043 0.177760 -0.007825
-0.148460 0.095034 -0.146815 0.990546 0.121625 -0.063443
-0.221648 0.210829 -0.083893 -0.995151 -0.098280 -0.003965
-0.087536 -0.149013 -0.127671 -0.014104 -0.999900 -0.001096
-0.198910 -0.146176 -0.045439 -0.026694 -0.998092 -0.055668
-0.132271 -0.063216 -0.190497 0.050864 0.729147 -0.682465
-0.172055 0.262739 0.081018 0.988687 0.148053 -0.024037
0.130359 -0.062867 -0.173375 0.051911 0.996560 0.064608
0.064780 -0.065061 0.104442 -0.018507 0.999828 0.001552
0.271626 -0.434369 0.205854 0.994386 -0.027831 -0.102084
-0.230391 0.323071 -0.184141 -0.018679 -0.005633 -0.999810
-0.234830 0.497609 -0.062472 0.214064 0.976744 0.012119
0.136517 -0.147773 -0.208522 -0.004539 -0.869600 -0.493736
-0.167125 -0.145722 0.175572 -0.043467 -0.992072 0.117915
-0.077004 -0.066195 -0.083538 0.031078 0.999488 -0.007610
0.285423 -0.140396 0.068526 0.954609 -0.294396 0.045303
0.283698 -0.131273 -0.059094 0.996581 0.044687 0.069488
-0.280945 0.461070 -0.048227 -0.951295 -0.300648 0.068181
-0.214359 0.332056 0.185256 -0.072196 -0.045753 0.996341
-0.222155 -0.000876 -0.077559 -0.998871 0.043474 -0.019132
-0.135111 -0.147871 0.036551 0.030082 -0.998189 -0.052100
0.129899 -0.113699 -0.211565 -0.097878 -0.025185 -0.994880
-0.205666 -0.148458 -0.077465 0.007876 -0.999252 -0.037861
0.146227 -0.071853 0.213715 -0.120548 -0.048330 0.991530
0.117338 -0.144148 0.039779 0.022618 -0.999504 0.021901
-0.179979 -0.043335 0.183960 0.061482 0.057889 0.996428
-0.226017 -0.094108 0.139847 -0.999356 -0.035873 -0.001040
0.244468 -0.491755 0.185495 -0.291856 -0.263849 -0.919350
0.057873 -0.064663 -0.016776 -0.051953 0.996790 -0.060918
0.036118 -0.146617 -0.151238 0.000064 -0.999372 0.035424
-0.222850 0.484606 0.059380 0.938168 0.340859 0.060460
0.233850 -0.247078 -0.202884 -0.994577 -0.082427 0.063422
-0.172954 -0.149134 -0.125514 0.013691 -0.996841 0.078235
0.243428 -0.299615 -0.215034 -0.078507 0.032106 -0.996396
0.280926 -0.075900 0.151974 0.997099 -0.025387 -0.071752
-0.277959 0.459058 0.081417 -0.950266 -0.307674 -0.048277
0.194915 -0.063115 -0.147039 0.005878 0.999982 -0.001071
-0.202939 -0.238303 -0.183774 0.059970 -0.045222 -0.997175
0.058538 -0.062426 -0.044359 -0.008075 0.999914 0.010359
-0.173934 0.259982 -0.164501 0.977051 0.212712 -0.011173
-0.177026 -0.145889 -0.163560 0.054823 -0.998467 -0.007645
0.144328 -0.061847 -0.195147 -0.017785 0.987848 -0.154405
-0.184804 -0.151172 -0.149727 0.177078 -0.750028 0.637261
-0.169056 0.140695 0.185940 0.122999 -0.003027 0.992402
-0.198593 0.401923 -0.123010 0.982797 0.150835 -0.106577
-0.185515 0.027145 -0.185903 -0.015030 -0.005358 -0.999873
0.065350 -0.061940 0.075066 -0.014680 0.999459 0.029447
-0.063726 -0.150661 -0.182912 -0.037775 -0.993254 -0.109632
0.106277 -0.079132 0.206893 -0.080641 -0.035460 0.996112
-0.180182 -0.310999 -0.148817 0.598973 -0.088304 0.795886
-0.177188 0.182460 0.183419 0.000843 -0.024044 0.999711
-0.042557 -0.063964 -0.005524 0.093372 0.995624 -0.003907
0.282165 -0.079582 0.126164 0.957185 0.287642 -0.032553
-0.177966 0.300556 -0.147255 0.983769 0.178509 0.018255
-0.172087 0.091039 0.182098 0.118652 0.101584 0.987726
-0.247637 0.367219 0.105140 -0.977841 -0.191484 0.084617
-0.186269 -0.471762 0.146904 0.485627 -0.078490 -0.870635
0.230422 -0.061117 0.092137 0.060036 0.998164 -0.008016
-0.198935 -0.473650 -0.184585 0.252056 -0.181467 -0.950546
0.267662 -0.351835 0.179713 0.999384 0.029395 0.019148
0.046124 -0.083352 0.205557 -0.098661 0.032850 0.994579
-0.258006 0.387854 0.045581 -0.958472 -0.280909 0.049207
-0.189336 -0.148165 0.042342 0.073096 -0.996799 -0.032385
-0.205054 0.416467 -0.088742 0.968289 0.248941 0.021089
0.064776 -0.063379 0.145779 0.004724 0.999505 -0.031112
-0.153962 0.142303 -0.107659 0.975623 0.196858 0.096987
-0.073896 -0.064010 -0.007683 -0.034713 0.999378 0.006281
0.104656 -0.145552 0.070420 0.031929 -0.999397 0.013629
-0.182834 -0.361858 -0.179482 0.852824 -0.005287 -0.522171
-0.164679 0.217668 0.100413 0.985562 0.169157 -0.007331
-0.145406 -0.057519 -0.166019 0.905273 0.423930 -0.027626
-0.164638 0.214821 0.108999 0.986640 0.155322 0.049159
-0.216025 0.059798 -0.031524 -0.995557 0.073978 0.058255
-0.193095 0.064577 -0.186180 0.099716 -0.046974 -0.993907
-0.022247 -0.143746 -0.192579 -0.095186 -0.912253 -0.398414
-0.279843 0.463675 0.008564 -0.941936 -0.335724 0.006840
0.110100 -0.063659 -0.079193 0.042724 0.998579 -0.031864
-0.135905 -0.110102 0.192617 -0.080339 0.024471 0.996467
-0.193810 -0.019028 -0.185038 -0.021111 -0.071845 -0.997192
-0.150608 -0.130818 -0.191317 0.021293 0.138748 -0.990099
-0.104555 -0.142562 -0.196864 -0.084090 0.048530 -0.995276
0.161609 -0.112173 0.211058 -0.093767 -0.071587 0.993017
0.019166 -0.064116 -0.070306 -0.037270 0.997351 -0.062469
-0.214320 -0.168985 0.183288 -0.189888 0.071889 0.979170
-0.222602 -0.036889 -0.132759 -0.992392 0.118541 -0.033258
-0.163897 0.201929 0.048383 0.989506 0.144278 -0.007804
-0.278616 0.464699 0.065968 -0.957302 -0.283101 0.058538
-0.239638 0.322118 -0.031767 -0.974423 -0.224449 0.011046
-0.267350 0.422728 0.004978 -0.962169 -0.271383 -0.024120
-0.225681 -0.184887 -0.174456 -0.987721 -0.155738 0.012341
0.135834 -0.062215 -0.182179 -0.015068 0.999836 0.010011
-0.183254 -0.325061 0.179954 0.999580 0.010914 0.026858
-0.219020 0.026995 -0.103463 -0.999445 0.032621 -0.006724
-0.139565 -0.145898 0.020105 -0.008026 -0.999854 0.015092
-0.265083 0.426646 -0.065381 -0.943479 -0.329587 -0.034926
-0.124211 -0.063911 0.176165 0.008158 0.995151 0.098020
-0.051984 -0.149366 -0.155767 0.043274 -0.995940 0.078940
-0.218128 0.197869 -0.187097 -0.541523 -0.033371 -0.840023
-0.215701 0.038605 -0.106259 -0.998446 0.055729 -0.000726
0.254663 -0.297467 -0.213290 0.090039 -0.061211 -0.994055
-0.214624 0.466496 -0.072975 0.987735 0.148254 0.048994
-0.067283 -0.064717 0.167509 -0.011274 0.999936 -0.001272
-0.106202 -0.148032 0.074319 0.007765 -0.999853 -0.015314
-0.167547 0.233654 -0.038709 0.981720 0.190329 -0.000013
-0.151743 0.071027 -0.113295 0.999727 -0.021823 0.008300
0.125060 -0.060925 0.027336 0.010025 0.998670 -0.050583
-0.182427 -0.338560 0.146880 0.111910 0.044369 -0.992727
-0.195801 0.158793 -0.186656 -0.056315 0.156870 -0.986012
-0.210714 -0.500572 -0.151239 -0.278040 -0.709647 0.647375
-0.219558 0.468519 0.092505 0.959867 0.280426 -0.004084
-0.050812 -0.146555 0.026077 -0.005927 -0.999305 -0.036798
0.087565 -0.103893 -0.208087 -0.160392 -0.000079 -0.987053
0.230557 -0.145566 0.132728 0.053287 -0.998154 -0.029132
-0.265092 0.412863 0.031698 -0.952685 -0.303157 0.022095
0.282391 -0.145046 -0.072226 0.952797 -0.299036 -0.052499
0.164935 -0.064333 -0.121298 -0.003492 0.999879 0.015171
0.283672 -0.135552 -0.078648 0.994850 -0.068692 0.074527
-0.205566 -0.145509 -0.007128 -0.054015 -0.997965 0.033890
-0.199173 -0.390619 0.151235 -0.196611 -0.044005 -0.979493
-0.141251 -0.060760 -0.179960 0.409609 0.878242 -0.246804
-0.219490 0.043956 -0.073791 -0.999696 0.024660 -0.000634
-0.218818 -0.173115 0.184975 -0.606104 -0.034749 0.794626
0.062280 -0.147094 0.195530 -0.009800 -0.979776 0.199857
-0.163781 0.219791 0.108702 0.982541 0.185770 0.010137
-0.185056 0.001936 0.184157 0.022354 0.009746 0.999703
0.034208 -0.079338 -0.204646 0.022545 0.033257 -0.999193
-0.021034 -0.144459 0.008919 0.054494 -0.987308 0.149177
-0.223439 -0.202290 -0.185039 -0.984635 -0.087247 0.151266
-0.032928 -0.096881 0.196989 -0.083420 -0.005348 0.996500
-0.219260 0.043535 0.159065 -0.998965 0.045105 -0.005870
-0.212865 -0.081171 0.187198 -0.073524 0.009873 0.997245
-0.217214 0.122520 0.088339 -0.999053 -0.016111 0.040427
0.155159 -0.145595 -0.211049 -0.137070 -0.481223 -0.865815
-0.229123 0.500497 0.061553 0.383113 0.923599 -0.013739
0.264188 -0.140178 -0.220526 0.361351 -0.171597 -0.916504
0.070591 -0.087118 -0.203271 -0.047018 -0.044075 -0.997921
0.040553 -0.149648 -0.083631 0.002803 -0.997729 -0.067305
-0.206889 -0.251656 0.150425 -0.062941 -0.029712 -0.997575
0.031628 -0.063900 -0.013833 0.010032 0.999949 -0.000734
-0.222811 0.491241 -0.124774 0.952969 0.299092 0.048924
-0.235047 0.300727 0.056831 -0.982003 -0.186189 0.031699
0.284900 -0.093822 0.062857 0.999769 0.018292 0.011247
-0.218621 0.054631 0.167780 -0.997204 0.047572 0.057626
-0.194120 -0.126087 -0.188681 -0.055769 0.051457 -0.997117
0.279520 -0.064878 0.126724 0.814777 0.574084 -0.081029
0.262021 -0.063741 -0.126094 -0.095926 0.995090 0.024363
0.132763 -0.061913 0.066469 -0.037257 0.997747 -0.055797
-0.180064 0.112735 0.184675 -0.076280 -0.026043 0.996746
-0.083933 -0.133155 -0.194493 -0.013927 -0.069923 -0.997455
-0.215933 0.057317 0.160635 -0.997129 0.072940 -0.020314
0.262120 -0.206368 0.171945 0.036419 0.044486 -0.998346
0.258831 -0.185023 0.215403 -0.005373 0.016223 0.999854
-0.210718 0.178640 0.181940 -0.020007 -0.093527 0.995416
-0.115840 -0.115101 0.191924 -0.030066 0.019304 0.999362
-0.100620 -0.149886 -0.174664 0.028692 -0.993679 -0.108527
0.027504 -0.144988 0.185567 -0.012824 -0.996419 0.083571
0.073423 -0.063041 0.029454 -0.089048 0.993090 -0.076436
-0.213295 -0.331551 0.167746 -0.996083 -0.077982 0.041694
-0.260181 0.486422 -0.043402 -0.431111 0.902197 0.013563
0.280354 -0.108451 0.164887 0.999441 0.026059 0.020934
-0.051176 -0.139554 -0.203581 -0.108764 0.040751 -0.993232
-0.230232 0.501563 -0.147019 0.414386 0.910054 -0.009304
0.070093 -0.061386 0.034064 0.017439 0.998846 -0.044740
-0.219125 0.123758 0.119203 -0.999197 0.005326 0.039721
0.129664 -0.149204 0.085743 0.047536 -0.998544 0.025516
0.189897 -0.146419 0.107066 -0.020247 -0.999779 -0.005611
-0.180330 -0.268586 0.179277 0.999427 0.033829 0.001104
-0.194440 0.370498 0.181018 0.964035 0.211159 0.161394
-0.145294 -0.060035 -0.039032 0.959606 0.279955 -0.027970
-0.178800 -0.286423 0.171208 0.997002 0.042671 0.064552
0.271538 -0.149282 0.161819 0.003222 -0.911401 -0.411506
0.240118 -0.297038 0.183753 -0.991483 -0.128469 0.021406
-0.224228 -0.154540 0.153419 -0.466074 -0.012966 -0.884651
-0.190541 0.361370 0.093692 0.977521 0.210546 -0.011124
0.271716 -0.254399 -0.209621 0.839341 -0.052015 -0.541110
0.181656 -0.061122 0.085221 -0.001101 0.997781 0.066565
-0.022565 -0.145037 0.101376 0.039643 -0.999154 -0.010978
0.254488 -0.062789 0.181699 -0.026405 0.999634 0.005848
-0.154295 -0.036128 0.188305 -0.012744 0.019329 0.999732
0.017790 -0.065161 -0.139203 0.016966 0.996159 -0.085908
0.265445 -0.418956 0.215647 0.076787 -0.071203 0.994502
0.270034 -0.148794 0.099350 0.120094 -0.992026 0.038236
-0.228444 -0.139028 -0.082901 -0.999977 -0.005303 -0.004166
-0.160012 0.177550 -0.029403 0.986553 0.163087 0.010719
0.219416 -0.146114 0.175388 -0.068139 -0.997638 0.008653
0.233058 -0.220107 -0.199678 -0.993416 -0.027216 -0.111282
0.269830 -0.188834 -0.168523 -0.079354 0.000757 0.996846
-0.157478 0.172155 -0.029552 0.992375 0.118258 -0.034748
-0.270938 0.482512 -0.171039 -0.465138 0.879762 -0.098308
-0.048444 -0.112573 -0.200824 -0.169000 -0.079753 -0.982384
0.159422 -0.145219 -0.206079 -0.075643 -0.808926 -0.583024
0.268701 -0.065645 -0.090663 0.400910 0.914118 -0.060495
0.238614 -0.321936 -0.193743 -0.955189 -0.114191 0.273083
-0.224953 0.246986 -0.061760 -0.988068 -0.153772 0.008734
-0.196994 -0.058038 -0.184411 0.021460 0.125343 -0.991881
-0.092822 -0.064480 0.137288 0.008640 0.999963 0.000126
-0.162134 -0.147892 -0.048958 0.004004 -0.999990 0.001916
-0.008331 -0.062123 0.019058 0.054072 0.998479 -0.010789
-0.217318 0.165765 -0.067401 -0.996671 -0.080726 -0.011412
-0.202379 -0.158235 -0.183904 0.039062 -0.021527 -0.999005
0.187755 -0.147018 0.071597 -0.033880 -0.999422 -0.002701
-0.226596 -0.148601 0.018381 -0.351597 -0.935346 0.038817
-0.219440 0.145070 -0.033875 -0.997962 -0.056899 -0.028880
0.234260 -0.086824 -0.219497 -0.077214 -0.039811 -0.996219
-0.030130 -0.148566 -0.075743 0.028521 -0.999558 -0.008331
-0.171553 -0.147321 0.046422 -0.011810 -0.999911 0.006207
-0.012858 -0.063150 0.010532 -0.007431 0.999970 0.002001
-0.062126 -0.147633 -0.052831 -0.015361 -0.999879 0.002457
-0.216693 0.070766 -0.123753 -0.997255 0.035809 0.064814
-0.215816 0.079912 -0.044434 -0.995176 0.082525 0.053052
-0.221586 0.205548 -0.010197 -0.998149 -0.048816 0.036281
-0.151335 0.096652 0.033076 0.996566 0.065106 -0.051164
-0.214939 0.131163 -0.127281 -0.998373 -0.035564 -0.044580
0.057713 -0.061145 0.024286 0.003275 0.999831 0.018092
-0.188598 -0.494546 0.171712 0.996556 -0.076965 -0.030870
-0.141500 -0.144860 0.077618 -0.016013 -0.999812 0.010979
0.005482 -0.062423 0.122005 -0.004193 0.999991 0.000244
-0.164125 0.041930 0.186131 -0.067897 -0.102625 0.992400
-0.169199 0.267011 0.065221 0.995028 0.099283 -0.007935
-0.230707 -0.136369 -0.079586 -0.998851 -0.047290 -0.007709
-0.132717 -0.146691 0.093418 -0.026792 -0.999224 -0.028873
-0.227152 -0.123358 -0.074052 -0.999799 0.019749 0.003551
-0.135632 -0.061921 0.128328 0.253657 0.966445 -0.040513
-0.002535 -0.147842 -0.177945 0.014163 -0.999513 0.027796
-0.214364 0.216249 0.184697 -0.512813 -0.117267 0.850454
-0.219155 0.140569 -0.139655 -0.998631 -0.034311 0.039488
-0.186481 0.015395 0.187629 0.013446 0.016252 0.999778
-0.216692 -0.312880 0.155688 -0.998588 -0.052794 -0.005860
-0.217246 0.036973 0.017958 -0.988290 0.145341 -0.046472
-0.219278 0.179539 0.064241 -0.997665 -0.065794 0.018302
0.255646 -0.226251 -0.172336 0.086791 -0.003327 0.996221
-0.119876 -0.145677 0.016548 -0.067650 -0.996543 -0.048231
-0.240732 0.496446 0.137546 -0.137890 0.990446 0.001877
0.097238 -0.145044 -0.207200 0.010742 -0.832934 -0.553268
-0.200352 0.404319 -0.131871 0.987147 0.157286 -0.028309
-0.132306 -0.146452 -0.037285 -0.053060 -0.998423 0.018314
0.193753 -0.106049 -0.212778 -0.070258 0.009332 -0.997485
-0.104662 -0.064136 0.051892 0.008446 0.999950 0.005322
-0.122140 -0.146281 0.052707 -0.011618 -0.999805 -0.015961
-0.227920 -0.138127 0.111629 -0.999958 -0.006790 0.006104
-0.230688 0.290539 -0.100225 -0.974367 -0.216512 -0.061090
-0.146396 -0.040696 0.161333 0.999369 0.013152 0.032988
-0.175772 0.167706 0.189626 0.021813 -0.033862 0.999188
-0.165175 -0.085984 -0.189475 -0.072214 0.022605 -0.997133
0.249235 -0.064535 0.126645 0.028264 0.999578 -0.006725
-0.048460 -0.149466 0.076332 0.019575 -0.999653 0.017606
0.280868 -0.147082 -0.043485 -0.023230 -0.999718 0.004984
0.101837 -0.065569 -0.108320 0.065002 0.996511 0.052349
0.020421 -0.146608 -0.114121 0.001559 -0.999999 -0.000409
-0.057372 -0.144866 -0.155996 0.071257 -0.995854 -0.056552
-0.183713 -0.370383 0.148321 0.029587 -0.001972 -0.999560
-0.144437 -0.014763 0.140326 0.999800 0.018211 0.008234
-0.044886 -0.132841 0.195175 -0.074669 0.081676 0.993858
-0.005377 -0.062785 0.067990 0.007002 0.996407 -0.084406
0.180205 -0.061324 -0.090468 0.002395 0.999172 0.040613
-0.180190 -0.324846 0.172705 0.999985 -0.005418 -0.000955
-0.220053 0.037637 -0.063021 -0.995591 0.084465 0.040802
0.267389 -0.087612 -0.214063 0.515601 -0.074459 -0.853587
-0.227362 -0.079543 -0.101107 -0.992522 0.064571 0.103586
0.212728 -0.145401 -0.001063 -0.011498 -0.999497 -0.029566
-0.050030 -0.147730 0.121771 0.003525 -0.999846 0.017218
-0.211149 0.442946 -0.175105 0.935490 0.309439 -0.170605
0.283203 -0.082554 0.000201 0.999859 0.003906 0.016320
0.237277 -0.063740 -0.096914 -0.027519 0.999617 -0.002783
-0.001894 -0.099620 0.201872 -0.048805 0.112528 0.992449
-0.227487 0.257833 -0.147323 -0.990217 -0.138716 -0.015113
-0.220485 -0.247088 -0.180114 -0.749137 -0.076791 -0.657949
-0.161949 -0.023914 -0.183977 0.161747 -0.008302 -0.986797
-0.269938 0.437168 0.017644 -0.960434 -0.276203 0.035752
-0.220546 0.204503 0.086325 -0.999535 -0.029821 0.006317
-0.063997 -0.063321 0.040757 -0.000528 0.998719 -0.050598
0.009662 -0.066521 0.147877 -0.012487 0.997900 -0.063562
-0.262333 0.487973 -0.081826 -0.380939 0.924367 0.020735
-0.026049 -0.147446 -0.162862 0.036971 -0.998673 -0.035854
-0.001914 -0.065898 -0.077894 -0.025819 0.999666 0.001259
0.089933 -0.061556 -0.093579 0.004902 0.996056 -0.088596
-0.282786 0.466287 0.048807 -0.947292 -0.320325 0.005553
0.132055 -0.148905 0.060275 -0.016584 -0.999778 0.012976
0.149744 -0.064569 -0.097949 0.009907 0.999951 -0.000695
-0.160283 0.161817 0.058921 0.992552 0.108167 0.056042
-0.218959 0.194474 0.065516 -0.992598 -0.114679 0.039971
-0.212466 0.041065 -0.189067 0.050461 -0.061876 -0.996807
-0.197271 0.399792 -0.015453 0.959799 0.276560 -0.047969
-0.169907 0.253498 0.074173 0.987309 0.157774 -0.018106
-0.173979 0.272682 0.180212 0.871180 0.145235 0.468990
0.281800 -0.120590 0.013458 0.998749 -0.041918 0.027256
-0.225197 -0.104372 0.178851 -0.880477 0.001850 0.474085
-0.024440 -0.112560 -0.197477 -0.089738 0.088616 -0.992015
-0.200585 0.384192 0.182053 0.258648 0.084280 0.962288
-0.162309 0.185543 0.075765 0.977236 0.207231 -0.045452
-0.268094 0.435782 0.167229 -0.991553 0.019438 0.128234
-0.209366 -0.447272 -0.189324 -0.022050 0.012601 -0.999677
-0.187486 0.131456 0.183281 -0.001265 0.011556 0.999932
0.009498 -0.148370 0.008792 -0.026893 -0.997760 0.061247
-0.219508 0.000360 -0.088729 -0.996980 0.038246 0.067588
0.274687 -0.467634 -0.208070 0.935039 -0.102853 -0.339299
-0.227037 -0.059203 0.067321 -0.996657 0.053922 0.061373
-0.224673 -0.026132 0.119542 -0.992313 0.118632 -0.035220
-0.080396 -0.136690 -0.194659 -0.014460 0.117664 -0.992948
0.094060 -0.067742 -0.204519 -0.061147 0.102921 -0.992808
-0.169248 0.224967 0.104933 0.985653 0.168730 0.004329
-0.277579 0.455608 0.035839 -0.953345 -0.301827 -0.005760
0.109059 -0.076698 -0.209968 -0.068752 0.188566 -0.979651
-0.213893 -0.450873 0.181000 0.007956 -0.010998 0.999908
-0.216662 0.127646 -0.103141 -0.998905 -0.038630 -0.026406
-0.256442 0.390215 0.097343 -0.964011 -0.265822 -0.004721
0.204807 -0.146579 -0.207653 0.005038 -0.999868 0.015441
0.267989 -0.350121 -0.177631 0.069970 -0.008774 0.997510
-0.233929 0.385101 0.183622 0.060645 0.026353 0.997811
0.250781 -0.199578 0.209443 -0.126263 -0.006259 0.991977
-0.185683 -0.382486 -0.146634 -0.036247 0.026824 0.998983
0.010119 -0.149254 -0.082786 -0.005681 -0.999983 0.001603
0.264258 -0.338236 0.215206 0.055785 -0.034506 0.997846
0.039699 -0.144618 0.008678 -0.047836 -0.998498 -0.026723
0.221295 -0.145665 -0.000913 0.014044 -0.997022 0.075826
0.221548 -0.067671 -0.217588 -0.065276 0.258400 -0.963830
-0.171706 0.265924 -0.106321 0.990754 0.135166 0.011703
-0.191033 0.367373 0.110492 0.978105 0.207563 0.015139
0.242251 -0.144678 -0.058832 -0.017253 -0.999768 0.012923
0.095905 -0.125113 0.210282 -0.067699 0.025980 0.997367
-0.054743 -0.135958 0.199068 -0.036126 0.004098 0.999339
-0.217278 0.388324 -0.188337 0.060954 -0.037671 -0.997429
0.040966 -0.065789 -0.142476 0.014510 0.999014 0.041963
0.269403 -0.314236 -0.188358 0.999557 0.004032 0.029493
0.118875 -0.065827 -0.161241 0.012478 0.999910 -0.005013
-0.162737 0.195893 -0.041322 0.997145 0.074902 -0.009613
0.179361 -0.061572 -0.047772 -0.030624 0.999161 -0.027185
-0.224005 -0.042895 -0.092158 -0.994503 0.104575 -0.005345
-0.058005 -0.147945 -0.171107 0.048312 -0.993137 0.106513
-0.102960 -0.145870 0.147994 0.076064 -0.996293 0.040188
-0.168293 0.253860 0.054814 0.974256 0.225127 0.011936
-0.056471 -0.146368 -0.045800 -0.018497 -0.999457 0.027268
0.140081 -0.145580 -0.046465 -0.031986 -0.999485 -0.002448
-0.144658 -0.042034 -0.145271 0.993589 -0.098150 0.056104
-0.159819 0.176639 0.005824 0.989641 0.143549 -0.002296
-0.211664 -0.405504 -0.149571 -0.702013 0.010469 0.712087
0.273692 -0.198206 -0.177717 0.990779 -0.013539 0.134812
0.271648 -0.375676 0.204477 0.975978 0.094352 0.196377
-0.203851 -0.147213 0.013257 0.018668 -0.999518 0.024820
0.038072 -0.147043 -0.166298 0.011632 -0.999901 -0.007883
0.144928 -0.118817 -0.211965 -0.210078 -0.015744 -0.977558
-0.074526 -0.148165 -0.055186 -0.020199 -0.998366 -0.053455
-0.236333 0.501420 -0.037980 -0.252575 0.965728 -0.059792
-0.206409 0.430898 -0.082257 0.974528 0.223619 -0.017051
0.237422 -0.066381 0.105676 0.052739 0.997009 0.056494
-0.070437 -0.149494 -0.000398 0.002137 -0.999847 -0.017346
0.049249 -0.146379 -0.066380 -0.029545 -0.999557 0.003514
0.240981 -0.383205 0.185837 -0.759473 -0.011236 0.650441
0.166808 -0.132536 0.216004 -0.125255 0.034620 0.991520
0.174765 -0.065700 -0.103552 0.005689 0.999979 -0.003076
-0.225181 0.215939 0.087973 -0.978912 -0.204163 0.007012
-0.216549 0.067787 0.008205 -0.999443 0.029457 -0.015686
-0.149553 0.098405 0.046862 0.995028 0.096455 -0.024811
0.239462 -0.372565 -0.194047 -0.781820 -0.171475 0.599461
-0.208273 0.431594 0.092665 0.976645 0.214476 -0.012797
0.004547 -0.060531 0.047304 -0.037981 0.995158 0.090652
-0.026920 -0.105027 -0.199684 -0.051825 -0.010240 -0.998604
0.280244 -0.115106 -0.034277 0.998950 -0.008067 -0.045091
0.102884 -0.061097 -0.057472 -0.009766 0.999952 -0.000169
-0.192101 -0.147079 -0.186238 -0.108051 -0.054063 -0.992674
-0.176197 -0.032505 -0.187722 0.042720 -0.050283 -0.997821
-0.225680 0.252132 -0.157817 -0.991504 -0.127623 -0.025150
0.060459 -0.119533 0.203304 -0.049537 -0.062758 0.996799
-0.071722 -0.064531 -0.024268 0.096237 0.994333 0.045164
0.156480 -0.144456 0.099430 0.020927 -0.999093 0.037084
0.240138 -0.236119 -0.215606 -0.135825 0.037790 -0.990012
-0.148818 0.070707 -0.036698 0.995282 0.094563 -0.021715
-0.145094 -0.015077 0.033098 0.999138 0.032074 0.026343
-0.193403 -0.496739 0.158048 0.024224 -0.996708 -0.077369
-0.221158 0.186801 0.143001 -0.998053 -0.060061 0.016812
-0.249008 0.489870 -0.182453 -0.212365 0.382384 -0.899268
-0.220070 0.177819 -0.011004 -0.996005 -0.053435 0.071540
-0.230103 -0.117812 0.013025 -0.992337 -0.067719 0.103351
-0.213210 0.457642 0.166242 0.962749 0.267712 -0.038011
0.241529 -0.063191 0.021050 0.009880 0.999926 0.007114
-0.210303 -0.034894 -0.188164 0.005476 0.053636 -0.998546
0.027381 -0.143905 0.193791 0.010185 -0.998727 0.049405
-0.176690 0.293189 0.093430 0.986022 0.164660 0.025444
-0.221051 -0.011431 -0.137843 -0.994529 0.100444 -0.028697
-0.261732 0.403429 0.010297 -0.969723 -0.240496 0.042422
-0.198760 0.397107 0.015945 0.976758 0.213859 0.014401
-0.005449 -0.148251 -0.028026 -0.043362 -0.997340 0.058588
-0.221653 0.213084 0.064024 -0.997519 -0.069154 0.013190
-0.212499 -0.333942 0.183759 -0.998537 -0.014401 0.052121
0.020657 -0.063031 -0.201207 0.025811 0.998856 0.040250
0.033825 -0.060860 -0.198284 -0.014288 0.998977 -0.042895
-0.182326 -0.014098 -0.187160 -0.000148 -0.001567 -0.999999
-0.170822 0.250925 -0.038457 0.979781 0.199515 -0.014930
-0.220052 0.035982 -0.155995 -0.996565 0.011892 0.081956
-0.255315 0.382360 -0.112596 -0.971706 -0.235707 0.015156
-0.123432 -0.147354 0.190148 -0.009710 -0.942989 0.332683
-0.245875 0.419014 0.185920 0.045169 -0.031706 0.998476
-0.198645 0.395108 -0.086302 0.975965 0.217457 0.014299
-0.202542 0.414979 -0.010701 0.980410 0.196060 0.018872
-0.204631 0.416301 0.112050 0.956465 0.289992 -0.032842
0.225875 -0.147226 0.215819 -0.123776 -0.220011 0.967613
0.167592 -0.144586 -0.209680 -0.083373 -0.029596 -0.996079
-0.211201 0.016309 -0.188593 0.018201 0.029077 -0.999411
0.216385 -0.146451 0.212536 -0.188893 -0.981899 -0.013937
0.148032 -0.061295 -0.187586 -0.034718 0.995975 0.082636
-0.148923 0.070907 0.180574 0.997286 0.061735 0.040118
0.253859 -0.238070 0.213142 0.034335 0.035282 0.998787
-0.212986 -0.121577 -0.186066 -0.155629 -0.011092 -0.987753
-0.193159 -0.270979 -0.182761 -0.011365 -0.007995 -0.999903
0.023629 -0.149288 0.036958 0.004013 -0.998536 -0.053939
0.233558 -0.062059 -0.130243 0.007273 0.999972 -0.001997
-0.212645 -0.297945 -0.146440 -0.230034 -0.024167 0.972883
-0.001851 -0.065150 0.127838 0.121651 0.992047 -0.032303
-0.254510 0.379812 -0.015348 -0.981546 -0.191210 0.002321
0.124329 -0.145620 -0.143081 0.015384 -0.999606 -0.023465
-0.239576 0.320316 -0.001142 -0.985356 -0.169018 -0.022512
-0.160156 0.179123 0.093671 0.989042 0.133322 0.063420
0.250679 -0.442913 0.182585 -0.004010 -0.056938 -0.998370
-0.219341 -0.222267 0.165500 -0.998636 -0.050424 -0.013582
-0.268453 0.456042 -0.188908 -0.134756 -0.034433 -0.990280
-0.077502 -0.146940 0.154265 0.009632 -0.999953 0.000609
0.128239 -0.107685 -0.210484 -0.163603 -0.014095 -0.986426
-0.203737 -0.373373 0.151171 0.006014 0.038756 -0.999231
-0.182308 -0.277140 -0.188362 0.507238 0.011838 -0.861725
-0.279341 0.463981 -0.170116 -0.952379 -0.304913 -0.001417
-0.223362 -0.021020 0.161328 -0.994814 0.097390 -0.029340
0.093595 -0.063970 -0.176343 0.025775 0.999258 0.028613
-0.219263 0.021912 -0.040019 -0.998393 0.056650 -0.001512
0.271866 -0.229765 -0.185852 0.992826 0.008308 -0.119279
0.244948 -0.147356 0.002044 0.069791 -0.997376 0.019249
-0.123639 -0.147206 0.139222 0.009939 -0.999886 0.011346
0.278404 -0.069492 -0.088652 0.994163 -0.094144 -0.052692
0.249289 -0.347926 0.214043 -0.099046 -0.000359 0.995083
0.249574 -0.064381 -0.136447 -0.015058 0.995370 0.094931
-0.232418 0.495996 0.092984 0.476742 0.875861 -0.074733
0.168756 -0.063058 -0.041606 0.024836 0.999686 0.003420
0.273937 -0.063594 0.054047 0.212617 0.977065 0.011764
-0.183441 -0.252154 0.158780 0.999916 -0.012670 -0.002659
0.125962 -0.149259 0.077341 0.041524 -0.998819 0.025222
0.036094 -0.126833 0.204431 -0.034889 0.015174 0.999276
0.034298 -0.146494 0.201958 0.047183 -0.744281 0.666198
0.270109 -0.059573 0.044501 -0.015196 0.999884 0.000801
0.238096 -0.149188 0.009398 -0.197563 -0.980214 -0.012247
-0.222970 0.011381 0.133754 -0.995097 0.090788 0.039245
-0.207477 -0.172773 -0.183962 0.076947 0.004031 -0.997027
0.026587 -0.111521 0.203932 -0.099446 0.055052 0.993519
-0.153813 0.106040 0.158126 0.991957 0.124817 0.021029
-0.050992 -0.147796 0.130641 0.073958 -0.993306 -0.088734
0.285492 -0.101423 -0.072003 0.995668 0.092078 0.012908
0.233106 -0.144598 0.060227 -0.014812 -0.998616 0.050471
0.044226 -0.063532 -0.040827 -0.059238 0.998236 0.003981
0.239230 -0.341942 0.176464 -0.264107 0.044433 -0.963469
-0.031756 -0.063611 -0.015793 -0.004740 0.999949 0.008939
-0.223015 -0.024659 0.013571 -0.996385 0.082820 -0.018889
-0.180442 -0.249239 0.182251 0.997991 0.022716 0.059145
-0.135838 -0.064767 0.120222 0.195245 0.979405 0.051431
0.193802 -0.062567 0.095569 -0.034851 0.999390 0.002238
-0.248738 0.397734 0.186751 -0.248022 -0.089936 0.964571
-0.145826 0.029978 0.036666 0.998587 0.017030 0.050342
0.023931 -0.149235 0.178007 0.014258 -0.998639 -0.050178
-0.230505 -0.070505 -0.066121 -0.999183 0.014224 -0.037833
-0.029532 -0.063286 -0.157803 0.094366 0.995146 -0.027919
-0.204648 0.407850 -0.043326 0.970155 0.241726 0.019168
0.206889 -0.146955 -0.101730 -0.053147 -0.998336 0.022361
-0.179073 -0.271142 -0.154670 0.999634 -0.003769 -0.026798
0.269989 -0.320350 -0.198150 0.996741 0.014499 0.079355
-0.228125 -0.065229 0.048236 -0.998160 0.016628 -0.058307
-0.056561 -0.063970 0.029487 -0.039348 0.998651 0.033888
0.256406 -0.209017 0.207635 -0.054922 -0.061314 0.996606
-0.242870 0.323692 -0.116919 -0.972850 -0.231295 -0.008067
-0.113549 -0.061354 0.002352 -0.000275 0.999996 0.002762
-0.115784 -0.061101 0.017195 -0.019694 0.988682 -0.148731
-0.199869 -0.079287 -0.189441 0.016740 0.062025 -0.997934
-0.212658 -0.427934 0.184547 -0.520920 0.021846 0.853326
0.250178 -0.187762 -0.212966 0.121638 0.024500 -0.992272
-0.161941 0.082220 0.188636 -0.106018 0.111203 0.988127
-0.216461 -0.162789 -0.149242 -0.049161 -0.040781 0.997958
-0.237729 0.309369 0.002452 -0.981707 -0.182050 -0.055755
-0.218755 0.470094 -0.124252 0.964347 0.263938 -0.019292
-0.067088 -0.146905 0.099633 0.038808 -0.999145 0.014288
-0.211333 -0.065825 -0.189296 -0.024377 0.038722 -0.998953
-0.156260 0.119030 0.023543 0.994972 0.097996 -0.020697
-0.198332 0.235093 -0.188816 -0.030034 -0.090037 -0.995485
-0.205716 -0.165466 -0.182262 0.064925 0.013699 -0.997796
-0.156626 0.141982 0.143725 0.993714 0.089583 -0.067131
-0.148818 0.033933 0.182209 0.761769 0.122044 0.636250
0.104942 -0.145811 -0.205690 -0.113889 -0.838430 -0.532977
-0.225939 0.493135 -0.071283 0.568328 0.822771 -0.007137
-0.251366 0.494134 -0.175630 -0.378127 0.903993 -0.199542
-0.164139 0.201756 0.129326 0.987143 0.139655 -0.077754
-0.187744 -0.353792 -0.184492 -0.009297 0.038316 -0.999222
-0.147339 -0.054175 0.081503 0.941591 0.336549 -0.011910
0.114789 -0.064010 -0.169359 -0.016549 0.999692 0.018498
-0.164153 0.196780 -0.104942 0.985447 0.168341 0.023556
-0.187058 -0.172118 0.187364 0.659283 0.015915 0.751726
-0.058229 -0.147304 0.022668 0.062755 -0.997940 -0.013361
-0.191949 -0.213814 -0.154957 0.207032 0.041850 0.977439
-0.179743 0.136127 0.188694 -0.000952 -0.044074 0.999028
0.133918 -0.141211 0.204116 -0.028134 -0.929091 0.368779
-0.215829 -0.398757 -0.158599 -0.999735 -0.000317 0.023025
-0.215960 0.101947 -0.019767 -0.999920 0.012478 0.002247
0.016750 -0.063025 0.127225 0.096369 0.995130 0.020741
-0.202561 -0.198240 0.148950 0.103155 -0.006165 -0.994646
0.276643 -0.067332 0.020368 -0.010301 0.999776 0.018499
-0.191894 0.246842 -0.186491 0.021539 0.013340 -0.999679
-0.139628 -0.148928 -0.158632 0.011945 -0.996722 0.080013
0.266325 -0.351862 0.186400 0.999504 -0.030901 -0.006060
-0.222552 -0.037087 -0.139484 -0.994164 0.091009 0.057931
-0.233917 0.501591 -0.024270 0.120057 0.988410 0.092910
-0.160346 0.186016 0.125844 0.992455 0.113546 0.046256
0.259775 -0.252634 0.180277 0.145109 -0.008051 -0.989383
0.191490 -0.120238 0.210612 -0.027393 0.079549 0.996455
-0.228079 -0.080862 -0.185688 -0.495454 0.053457 -0.866988
0.214648 -0.148123 -0.161256 -0.026253 -0.999604 0.010082
-0.150996 0.099970 -0.164079 0.968089 0.056690 -0.244110
-0.190617 -0.374345 -0.148111 -0.005538 -0.051221 0.998672
-0.248981 0.495029 0.117938 -0.545961 0.836270 0.050792
0.198659 -0.061954 0.158960 0.022740 0.999540 0.020070
-0.181835 0.160475 0.183428 0.031170 -0.026683 0.999158
-0.212577 0.439811 0.021015 0.965081 0.258951 -0.039547
0.284776 -0.070935 0.106247 0.946806 0.309269 0.088948
-0.226106 -0.041312 -0.096954 -0.996994 0.076709 0.010926
0.267960 -0.369064 -0.208857 0.003793 0.021740 -0.999756
0.021887 -0.064655 -0.015457 -0.052033 0.998403 0.021981
-0.221037 0.211176 -0.016734 -0.985391 -0.168278 0.026208
-0.227145 0.266428 0.139319 -0.981182 -0.184614 0.056566
-0.224301 -0.146545 -0.076241 0.018081 -0.999793 -0.009381
-0.223386 0.242052 -0.158505 -0.989041 -0.142127 0.039978
-0.262301 0.407763 0.123390 -0.961123 -0.276086 -0.004306
0.194915 -0.065644 0.138271 -0.030439 0.999425 -0.014969
-0.122164 -0.146079 -0.105803 -0.001455 -0.999996 -0.002370
-0.229121 0.254382 -0.102915 -0.988996 -0.140828 0.045327
-0.147349 0.042680 -0.145018 0.997613 0.041898 -0.054889
-0.227913 -0.130023 -0.065630 -0.998444 -0.053974 0.013980
-0.229168 -0.062238 0.037935 -0.993079 0.114168 -0.027572
-0.279384 0.462221 -0.092055 -0.948384 -0.317123 -0.000748
-0.220233 0.316286 0.187270 0.118893 -0.101292 0.987727
0.005244 -0.145339 -0.126785 0.048975 -0.998148 -0.036078
-0.151277 0.103096 -0.148744 0.999510 -0.020536 0.023615
0.123873 -0.147985 0.084424 -0.033657 -0.998587 -0.041130
-0.075486 -0.140848 0.193768 -0.115963 -0.126116 0.985214
-0.184998 0.331649 0.163374 0.970803 0.234110 -0.052293
-0.159150 0.153793 0.035157 0.994771 0.101937 0.006267
0.111606 -0.147208 -0.132988 0.015262 -0.999157 0.038104
-0.271272 0.442796 -0.152291 -0.950560 -0.309460 -0.025876
0.211920 -0.106405 0.216991 -0.142065 -0.013936 0.989759
0.285333 -0.125418 -0.122735 0.999115 0.020819 0.036535
-0.271053 0.436921 -0.079788 -0.943608 -0.323656 -0.069644
0.283190 -0.079658 -0.070664 0.994236 0.107130 -0.004264
0.149732 -0.068613 0.210967 -0.058881 0.038345 0.997528
-0.233255 0.272448 -0.035475 -0.990441 -0.137223 -0.014040
-0.221321 0.202085 0.157315 -0.992501 -0.120043 0.023064
-0.204059 -0.152986 -0.144530 0.025828 -0.943091 0.331529
0.178825 -0.146539 0.136517 -0.018784 -0.999777 -0.009606
0.241068 -0.466550 0.206899 -0.874659 -0.046648 0.482490
0.036795 -0.144775 -0.117038 -0.000775 -0.999828 0.018527
-0.175450 0.271577 -0.140805 0.988919 0.147840 0.013548
0.225676 -0.147569 -0.101085 0.024747 -0.999694 -0.000367
-0.229378 0.281645 -0.048497 -0.991213 -0.132063 0.007506
0.185638 -0.147341 0.105500 0.064221 -0.997614 -0.025338
0.199391 -0.088458 -0.211115 -0.014931 -0.034343 -0.999299
-0.180787 0.313781 0.098735 0.979792 0.198398 0.025421
-0.127525 -0.146640 -0.015062 -0.054640 -0.997276 0.049549
0.085195 -0.061335 -0.059711 0.020251 0.999515 0.023646
0.084971 -0.062283 -0.079102 0.043560 0.997610 -0.053629
0.042333 -0.143058 0.193438 -0.016997 -0.998981 -0.041807
0.230209 -0.158481 -0.172825 -0.929264 -0.361567 -0.075747
-0.224967 0.237197 -0.043078 -0.991587 -0.129400 0.003381
0.006637 -0.060913 -0.177861 0.075795 0.997078 -0.009548
0.069681 -0.065511 -0.023977 0.009680 0.999951 -0.001930
0.104987 -0.146426 0.133081 -0.005254 -0.999533 -0.030096
0.009313 -0.063383 0.004878 0.020357 0.999738 -0.010433
0.202981 -0.062033 -0.001758 -0.000660 0.999949 -0.010029
0.033108 -0.066822 -0.095258 0.026215 0.999467 0.019448
-0.152982 0.110388 -0.165792 0.993334 0.059501 -0.098728
0.022356 -0.065426 0.171486 0.003363 0.998862 0.047578
0.152852 -0.060265 0.037971 0.061013 0.998086 -0.010071
-0.195381 0.383276 0.022855 0.964861 0.261898 -0.021256
0.242498 -0.481378 -0.197638 -0.998633 -0.023616 0.046623
-0.229266 -0.122568 0.101626 -0.999924 0.011925 -0.003199
-0.059571 -0.145059 0.077187 0.001704 -0.998906 0.046738
-0.147320 0.000440 -0.068129 0.998839 0.039290 -0.027863
-0.248739 0.349582 -0.030906 -0.942729 -0.333503 -0.006180
-0.064255 -0.146509 0.070825 0.001693 -0.999982 0.005753
-0.216616 0.119012 0.113846 -0.997025 -0.076754 -0.007117
-0.229918 0.272743 0.030762 -0.987482 -0.157694 0.003440
-0.183240 -0.235606 0.179901 0.955374 0.039278 -0.292776
0.122026 -0.143857 0.151762 -0.063625 -0.996402 0.055998
-0.204834 -0.272219 -0.151270 0.107854 -0.026665 0.993809
0.083216 -0.083447 -0.209449 -0.095874 -0.057347 -0.993740
-0.114187 -0.101057 -0.191949 -0.126098 0.039560 -0.991229
-0.174798 0.275061 -0.024366 0.984255 0.176684 0.004936
0.206395 -0.147156 -0.016842 -0.033426 -0.999302 0.016669
-0.227536 -0.122006 0.071468 -0.999318 0.036285 -0.006861
0.027849 -0.147861 -0.077324 0.000267 -0.999979 -0.006491
-0.215701 0.165726 -0.153048 -0.997917 0.002746 0.064451
0.271170 -0.480931 0.193064 0.860073 -0.049589 -0.507755
-0.156797 -0.147269 -0.162822 -0.024412 -0.999675 -0.007374
-0.179701 0.214541 -0.184768 0.009001 -0.082873 -0.996519
0.072706 -0.143127 -0.053707 -0.069725 -0.997560 -0.003416
-0.144497 -0.027661 -0.149923 0.994614 0.040781 -0.095284
-0.234518 0.279631 0.170532 -0.982775 -0.160467 0.091666
-0.024100 -0.146611 -0.097139 0.073963 -0.997066 -0.019743
0.235305 -0.065917 0.208904 -0.019759 0.998329 0.054303
0.254452 -0.061738 -0.147893 0.007924 0.998846 0.047368
-0.183093 0.167963 -0.185162 -0.035836 0.006637 -0.999336
0.247329 -0.285225 -0.212121 -0.035234 -0.084653 -0.995787
0.258529 -0.496111 0.213093 0.047364 0.004114 0.998869
0.243758 -0.444853 0.178464 -0.194542 0.022688 -0.980632
0.268719 -0.338219 -0.210746 0.005674 0.038567 -0.999240
-0.216550 0.458526 -0.184423 0.726006 0.258868 -0.637105
-0.215211 0.062879 -0.069420 -0.996710 -0.058143 -0.056462
-0.219835 0.170923 -0.157676 -0.998257 -0.058971 0.002453
-0.249771 0.495461 -0.140917 -0.309144 0.942907 -0.123923
-0.060753 -0.147437 0.059242 0.018314 -0.999756 0.012332
-0.185467 0.021552 0.184138 0.035389 -0.055863 0.997811
0.244558 -0.297634 0.181042 -0.812950 -0.051309 -0.580068
-0.185276 -0.304560 -0.156335 0.398426 -0.053057 0.915665
-0.027932 -0.149165 -0.086927 0.001168 -0.999856 0.016924
-0.146485 0.048286 0.132948 0.998633 0.051303 -0.009999
-0.181752 -0.364324 -0.150879 0.906385 0.000188 0.422453
-0.185924 -0.419112 0.182346 0.645515 -0.034726 0.762958
-0.092933 -0.145782 -0.048319 0.057717 -0.998330 -0.002442
0.067579 -0.135712 -0.202742 -0.087574 -0.066529 -0.993934
0.029803 -0.148382 -0.068331 0.045784 -0.998906 -0.009548
-0.190990 -0.073655 0.185443 -0.053927 0.106613 0.992837
-0.180953 0.100058 -0.186541 0.002672 -0.051655 -0.998661
-0.218015 0.147579 0.021332 -0.999345 -0.033317 0.014136
-0.128083 -0.148878 -0.057309 -0.030828 -0.999502 -0.006794
-0.150070 0.063814 0.006507 0.999874 0.015108 0.004769
-0.149727 0.061747 -0.100250 0.998915 0.043093 -0.017630
-0.198136 -0.194507 0.188157 0.178297 0.047481 0.982830
0.129469 -0.065441 -0.101879 -0.016037 0.999856 -0.005568
0.279730 -0.119188 -0.036510 0.999438 0.032410 0.008612
0.243477 -0.177124 -0.169032 -0.035405 -0.077675 0.996350
0.240386 -0.364084 -0.196867 -0.975240 -0.035670 0.218252
-0.225840 -0.051214 -0.170645 -0.989185 0.144381 -0.025818
0.120850 -0.148165 0.053896 -0.005024 -0.999973 -0.005275
-0.203868 -0.356718 0.184967 0.004238 -0.036410 0.999328
-0.266951 0.432364 0.142818 -0.939987 -0.340076 0.027794
-0.186011 -0.147836 -0.011525 -0.032903 -0.999307 -0.017380
0.271053 -0.186232 0.172898 0.816102 -0.162506 -0.554590
-0.148048 0.014495 0.184900 0.660690 -0.004642 0.750645
-0.225636 0.473482 -0.183763 -0.010092 0.037407 -0.999249
-0.217256 0.076515 0.051768 -0.999702 0.015365 -0.018996
0.229220 -0.062015 0.046826 0.078263 0.996858 -0.012244
0.117148 -0.108856 0.212343 -0.091354 -0.065811 0.993641
-0.159226 0.199122 0.075794 0.978514 0.203505 -0.033106
-0.268620 0.441788 0.102829 -0.953411 -0.294740 -0.064310
-0.213935 -0.459318 0.163912 -0.999303 0.035264 -0.012268
-0.152862 0.142489 -0.001764 0.999438 0.024011 -0.023383
0.213482 -0.063820 -0.158331 0.065984 0.997348 -0.030719
-0.216016 0.068437 0.176398 -0.997910 0.047003 -0.044341
0.281720 -0.148566 0.184941 0.877085 -0.474122 0.077012
0.133556 -0.062703 0.137609 0.007505 0.999556 -0.028852
-0.217722 0.090601 -0.099714 -0.995628 -0.059429 0.072066
0.021472 -0.060822 -0.018048 -0.017919 0.999815 0.006990
0.271632 -0.162684 -0.209861 0.808665 -0.087950 -0.581658
0.204197 -0.128475 -0.216025 -0.015362 0.009879 -0.999833
-0.224963 0.223281 0.100423 -0.991319 -0.131377 -0.005083
-0.022153 -0.146047 0.166986 0.010241 -0.999895 0.010257
-0.215790 -0.430358 0.160255 -0.997168 0.014071 -0.073873
-0.249094 0.372885 0.087424 -0.974625 -0.222721 0.022382
0.274574 -0.216264 0.211684 0.632633 0.040251 0.773405
-0.194770 0.378494 0.038397 0.980828 0.192993 0.027004
-0.225613 0.306316 0.185767 -0.011810 0.027833 0.999543
-0.206380 0.421985 0.145401 0.965556 0.260102 -0.006941
-0.067730 -0.062092 0.012607 0.024120 0.999223 0.031173
0.056467 -0.148507 -0.115853 -0.001626 -0.999982 0.005740
0.188462 -0.065094 0.203623 0.002702 0.999890 0.014602
0.076126 -0.064043 -0.202915 -0.034211 0.895171 -0.444409
0.100189 -0.148629 -0.076093 -0.020042 -0.998467 0.051600
-0.179951 0.168919 0.182454 -0.082028 0.006846 0.996606
-0.101217 -0.143701 -0.193877 -0.060893 0.005886 -0.998127
-0.174732 -0.120292 0.191485 -0.016136 0.106344 0.994198
-0.248040 0.358316 0.106680 -0.922170 -0.386370 -0.017914
0.242922 -0.239436 0.212408 0.036684 -0.013498 0.999236
-0.057789 -0.061419 -0.012707 -0.010400 0.999752 0.019706
-0.214338 0.381091 0.183673 -0.021418 0.017221 0.999622
-0.092169 -0.148862 -0.189685 -0.014545 -0.995792 -0.090486
0.055559 -0.061917 0.049941 -0.004509 0.999980 -0.004453
-0.153005 0.139252 0.098816 0.994907 0.094672 -0.034606
