ply 
format ascii 1.0 
comment github.com/mikedh/trimesh 
element vertex 840
property float x 
property float y 
property float z 
property float nx 
property float ny 
property float nz 
element face 0
property list uchar int vertex_indices 
end_header
-0.159603 0.064094 0.284809 0.299277 0.231899 0.925557
0.249165 0.148140 0.212892 -0.658838 0.389690 0.643486
-0.172269 -0.002701 0.291470 0.191985 -0.095667 0.976724
-0.089436 0.093813 0.042471 0.306163 -0.002018 -0.951977
-0.250353 0.174508 -0.304766 -0.914558 -0.246436 0.320707
-0.156052 0.067144 -0.210954 -0.419597 -0.381165 -0.823803
-0.197282 0.109210 0.293920 0.248960 -0.339805 0.906946
-0.096877 0.049090 -0.215578 -0.262925 -0.146495 -0.953630
-0.018252 0.230483 -0.224120 -0.143081 0.537325 0.831150
-0.447679 0.094166 0.069945 -0.491406 0.056063 -0.869124
0.221104 0.157228 0.045033 0.289553 -0.857842 -0.424577
0.148255 0.191806 -0.042874 -0.587630 0.730868 0.347164
-0.002397 0.234340 -0.217905 -0.187936 0.965557 0.179941
-0.059948 -0.195915 0.056298 0.351251 -0.717563 -0.601437
-0.071551 0.159097 0.250539 0.511647 -0.691678 0.509704
-0.309064 -0.006144 0.220092 -0.893351 -0.393944 0.216175
-0.194826 0.117552 -0.055665 0.840161 -0.134137 -0.525487
-0.020285 0.075312 -0.190040 -0.191584 0.592816 0.782218
0.300021 0.155092 0.097193 0.311115 -0.920286 -0.237237
-0.036081 -0.112321 0.166025 0.679517 -0.386166 0.623804
-0.115905 -0.247959 0.079738 -0.224195 -0.674824 0.703100
0.259703 0.150553 0.196240 0.803942 -0.586014 -0.101316
-0.229767 0.144026 -0.315701 -0.231898 0.180328 -0.955879
-0.374278 0.082859 0.274889 -0.945560 -0.032688 -0.323803
-0.174297 -0.253113 0.062682 0.285995 -0.604376 -0.743597
-0.363950 0.198841 0.023206 -0.874265 0.413468 -0.254374
-0.296194 -0.013459 0.238438 -0.731045 -0.511446 0.451659
-0.175879 0.173991 -0.001906 0.762050 0.460488 -0.455226
-0.248544 -0.010459 0.279279 -0.306404 -0.337214 0.890170
-0.315577 0.112984 0.302755 -0.476541 -0.020476 0.878914
0.303493 0.207660 0.141165 -0.052096 0.939917 0.337405
0.487525 0.143503 0.112658 0.381622 0.447346 0.808855
0.080284 -0.020683 0.103873 0.592396 -0.223866 -0.773919
-0.158623 -0.126588 0.213928 0.075977 -0.850174 0.520991
-0.010011 -0.164181 0.136099 -0.448163 -0.289996 0.845607
0.257216 0.201964 0.070622 -0.024590 0.981101 -0.191926
-0.387689 0.170688 -0.025999 -0.981201 0.140628 0.132167
0.109879 0.185820 -0.119533 0.599658 -0.799304 -0.039035
0.039931 0.190335 0.141717 -0.605496 0.583806 0.540875
-0.414649 0.114102 0.023377 -0.544110 0.801078 -0.249437
-0.009116 0.230480 -0.240706 0.893495 -0.199622 -0.402266
-0.389333 0.140744 -0.000017 -0.961602 0.274070 0.014404
-0.114653 -0.123463 -0.101448 -0.231203 -0.801924 -0.550875
-0.394004 0.110146 0.108894 -0.378089 0.626385 0.681682
-0.347903 -0.070857 0.175412 0.284545 -0.886039 0.366019
-0.007158 0.091115 0.166274 0.335950 0.204551 0.919400
-0.041970 0.159934 0.137278 -0.225036 0.955852 0.188962
0.036377 0.208520 -0.256249 -0.631756 0.285721 -0.720589
0.080168 0.078015 -0.117808 0.866655 -0.180057 -0.465284
-0.128185 0.059156 0.267797 0.492029 0.263202 0.829839
-0.213849 0.015776 0.289395 -0.078869 -0.305114 0.949044
-0.234798 -0.093173 0.258977 -0.783235 -0.509563 0.356214
-0.110559 0.216148 -0.287292 0.659313 -0.123666 -0.741628
0.106582 0.129821 -0.048587 -0.968510 0.163732 0.187564
-0.125912 0.112677 0.263683 0.801526 -0.139786 0.581392
-0.346729 0.229969 0.118309 -0.550130 0.819755 -0.159245
-0.222719 -0.170531 0.065038 -0.701021 -0.193714 0.686327
-0.318690 -0.112676 0.075413 -0.675716 -0.492369 0.548617
-0.418958 0.117298 0.041799 -0.559293 0.798150 -0.223937
-0.264668 0.173863 -0.094632 -0.779737 0.482090 -0.399499
0.021463 -0.103882 0.011897 0.857635 -0.513760 0.022630
-0.270611 -0.045281 -0.088422 0.014219 0.028857 -0.999482
0.002246 0.134647 -0.200105 -0.477833 0.132367 0.868421
-0.215703 -0.185385 0.067692 -0.803203 -0.105936 0.586210
0.229032 0.226545 -0.110761 -0.055414 0.988439 -0.141131
0.102992 0.175642 0.143574 -0.040241 0.193503 0.980274
-0.021976 -0.126340 -0.066338 0.558376 -0.778285 -0.287208
-0.168393 0.031888 -0.044280 0.322136 0.918185 -0.230573
-0.143386 -0.031286 -0.167111 -0.445020 -0.487934 -0.750918
-0.321871 0.160838 -0.074573 -0.181805 0.484473 -0.855706
-0.152365 -0.061042 -0.138804 -0.507795 -0.451397 -0.733747
0.106516 0.103278 -0.007793 -0.967155 0.223043 0.121915
-0.008911 0.009425 -0.184104 0.470366 -0.495391 -0.730303
0.097526 0.065907 -0.061631 0.948261 -0.261231 -0.180443
0.056767 -0.034675 -0.058073 0.868364 -0.462237 -0.179671
0.084587 0.196477 0.084745 -0.271220 0.884360 -0.379931
0.049052 0.221390 -0.230396 0.159295 0.842098 -0.515263
0.070932 0.090660 -0.123852 -0.845507 0.168706 0.506613
-0.273607 0.250082 0.086471 0.132277 0.983341 -0.124672
0.066321 0.168624 0.067216 -0.153085 0.672850 -0.723767
-0.046073 0.123205 0.165762 0.530732 -0.092355 0.842493
0.137845 0.179851 -0.002928 -0.468961 0.879724 0.078499
0.081100 0.214590 -0.163040 0.814827 0.368667 -0.447372
-0.335816 0.118864 0.302734 -0.057315 0.494127 0.867499
0.134428 0.075756 0.119002 0.654054 -0.332866 -0.679274
-0.292681 -0.040141 -0.092569 -0.094317 -0.167595 -0.981334
-0.213798 0.192202 -0.156491 -0.064883 0.988175 0.138925
0.170135 0.212299 -0.102905 -0.022691 -0.500946 -0.865181
-0.069225 -0.218773 0.136558 -0.546205 0.647725 0.531143
0.119944 0.224482 0.111462 -0.744834 0.667057 0.016015
-0.201222 0.150376 -0.321499 0.921311 -0.315786 -0.226857
-0.291117 -0.015141 -0.098257 -0.140869 -0.344620 -0.928113
0.025816 -0.082683 0.132582 0.008573 -0.643329 0.765542
0.021435 0.009538 0.139583 0.741007 -0.081284 0.666559
-0.332426 0.245635 0.108179 -0.693945 0.442531 -0.567985
0.142588 0.223809 -0.120150 -0.158860 0.984112 0.079287
0.215143 0.141829 0.078032 0.304825 -0.938656 -0.161265
-0.059269 0.195165 -0.291793 -0.958987 -0.080401 -0.271808
0.161182 0.216897 0.000956 -0.762971 0.460908 0.453253
-0.049297 0.115452 -0.231474 0.095040 -0.208165 -0.973465
-0.278086 0.214263 0.219333 0.123518 0.747346 0.652853
-0.143200 0.171270 0.061549 0.695598 0.715727 -0.062279
-0.223078 0.213256 -0.252108 0.608472 0.659198 -0.441836
0.154417 0.069800 0.170305 0.021929 0.552650 0.833125
0.431851 0.169721 0.101981 0.437725 0.816480 0.376507
-0.289575 0.022073 0.264699 -0.499589 -0.328422 0.801592
0.098647 -0.020277 0.107546 0.494877 -0.115001 -0.861320
-0.126522 0.163865 -0.254591 0.081653 -0.675564 -0.732766
-0.381044 0.154405 0.079557 -0.761739 0.647675 0.016454
-0.151654 0.032028 -0.024049 0.329629 0.848418 -0.414164
0.458738 0.104575 0.121737 -0.413086 -0.513345 -0.752221
-0.245969 -0.122888 0.056737 -0.837507 -0.225424 0.497761
-0.193444 -0.104990 0.274167 -0.060228 -0.935006 0.349480
-0.138368 0.015814 0.280127 0.394216 -0.034485 0.918371
-0.029322 0.089636 0.174341 0.508888 0.285103 0.812249
-0.163704 0.166225 -0.272365 0.665252 -0.212049 -0.715874
-0.317717 0.100438 -0.100307 -0.541491 0.128407 -0.830843
-0.392236 -0.050060 0.178528 0.127740 0.733685 0.667375
0.114960 0.158749 0.150861 -0.134536 -0.007089 0.990883
-0.159960 0.087046 -0.200587 0.412109 0.606113 0.680290
-0.292112 0.152334 -0.090676 -0.352668 0.498525 -0.791895
-0.207466 -0.148291 0.156872 -0.544427 -0.791029 0.279056
0.495132 0.108049 0.118477 0.430041 0.013681 0.902706
0.055091 0.170008 0.154987 0.185659 -0.321657 0.928476
-0.358975 0.233455 -0.040539 -0.089698 0.878439 0.469361
-0.299706 0.131749 -0.099136 -0.266982 0.336051 -0.903211
-0.345391 0.127850 0.256770 -0.500708 0.829505 0.247411
-0.004218 0.056363 -0.167464 -0.195846 0.770007 0.607235
-0.351842 0.122556 0.290116 0.015501 0.947619 0.319027
-0.134288 0.082610 0.024682 0.532587 -0.253697 -0.807458
-0.190914 -0.014659 0.290089 -0.119044 -0.281662 0.952100
-0.180931 0.204522 -0.224040 0.082663 0.965302 0.247709
0.068889 0.047886 -0.105176 -0.596070 0.749078 0.289107
-0.145254 0.157657 -0.229361 -0.141769 0.479497 0.866016
-0.004799 0.025807 0.038457 -0.077303 0.872398 -0.482645
-0.142398 -0.155678 -0.038652 -0.196251 -0.877074 -0.438436
0.148575 0.060394 0.177579 -0.419028 0.381019 0.824160
-0.150124 0.164937 0.248557 -0.314684 0.947680 0.053635
-0.069314 -0.229059 0.121889 -0.973991 -0.153803 0.166394
-0.009808 0.192770 0.179531 -0.148594 -0.312304 0.938289
-0.058368 0.169516 0.232202 0.209584 0.916911 -0.339629
-0.076208 0.149830 0.219990 0.334807 -0.552132 0.763580
0.322251 0.152989 -0.057150 0.530719 -0.645940 0.548725
-0.011394 0.246000 0.184769 0.043092 0.015865 0.998945
-0.016870 0.110173 0.162856 0.299691 0.372483 0.878318
-0.154107 0.176980 0.197352 0.562031 0.775598 0.287348
0.128038 0.240697 0.095779 -0.859489 0.505601 0.075139
-0.016244 -0.166346 0.072793 0.599671 -0.654784 -0.460056
-0.316952 0.025555 -0.097427 -0.550492 -0.139423 -0.823116
-0.236926 -0.271730 0.092175 -0.074785 -0.992225 0.099486
0.141909 0.173246 0.051226 -0.540602 0.669168 0.509867
0.019758 0.180004 0.121324 -0.431758 0.899577 -0.065926
0.019769 -0.010644 0.135345 0.733313 -0.134777 0.666398
0.063246 -0.071451 0.095113 0.722088 -0.076869 -0.687517
-0.121976 0.168335 0.081229 0.417720 0.869887 -0.262310
0.085632 0.196489 0.147146 0.392889 -0.369803 0.841953
-0.342682 -0.034234 0.180492 -0.654045 0.537326 0.532453
-0.187214 0.129454 -0.256923 0.030430 -0.933860 -0.356342
0.213819 0.071770 0.209263 0.104721 -0.748381 -0.654950
-0.052867 0.131051 0.215617 0.352473 -0.737507 0.576062
-0.262841 -0.077765 -0.037805 0.080400 -0.943167 -0.322446
-0.327538 0.235397 -0.056058 0.096589 0.835078 0.541586
0.380568 0.145278 0.169281 -0.051324 -0.794801 0.604696
0.117247 0.082773 0.030943 0.791744 -0.605175 -0.083098
-0.056789 0.117080 0.175050 0.595302 0.197680 0.778806
0.054901 -0.093819 0.125505 -0.554314 -0.641111 0.530767
-0.063638 -0.221952 0.099173 0.755188 -0.597852 -0.268820
-0.044083 0.197717 -0.292785 0.414590 0.737269 -0.533432
-0.084740 -0.002762 -0.082863 0.157086 0.984130 0.082538
0.232581 0.125671 0.174888 0.813458 -0.581256 0.020664
-0.085600 0.042251 -0.173827 -0.010803 0.608537 0.793452
0.143018 0.196106 -0.170969 -0.502675 -0.400190 -0.766267
-0.184366 0.172182 0.305626 0.221645 -0.150588 0.963430
0.304358 0.185014 -0.023059 0.171282 0.945646 -0.276436
0.131546 0.130669 -0.008124 0.781081 -0.407892 -0.472796
0.099042 0.053039 0.025233 0.862434 -0.502094 0.064110
-0.275662 0.232423 -0.029351 -0.078452 0.996441 0.030825
0.000920 -0.092713 -0.149173 0.810140 -0.562829 -0.164003
-0.278631 0.002118 0.267411 -0.517416 -0.319364 0.793906
-0.255948 0.066188 -0.129487 0.148200 -0.664993 -0.731998
0.307786 0.143809 0.143360 0.147397 -0.983865 0.101405
-0.199910 0.220443 0.043637 0.565115 0.779131 -0.271293
-0.001336 0.013672 -0.093658 -0.513484 0.787065 0.341852
-0.010140 0.160427 0.079639 -0.249421 0.928317 -0.275711
-0.278640 -0.030129 0.238523 -0.713722 -0.480515 0.509614
-0.389519 0.064320 -0.046127 -0.088486 0.344492 -0.934610
-0.275782 0.157479 0.304194 -0.936178 0.351023 -0.018814
0.063449 -0.011712 0.062358 0.940564 -0.334529 0.058557
-0.215523 0.062039 -0.049144 0.864632 0.407984 -0.293189
-0.185344 0.033719 -0.051235 0.315454 0.932939 -0.173532
-0.251173 0.262848 0.137606 0.098147 0.717330 0.689786
0.109609 0.070526 0.048119 0.764601 -0.641265 0.064535
-0.112067 0.010501 -0.063165 0.356537 0.899086 -0.254021
-0.461637 -0.027506 0.039559 -0.545963 -0.824719 0.147522
-0.002902 0.106622 0.049451 -0.060149 -0.049956 -0.996939
-0.143868 0.076816 0.272802 0.452184 0.178943 0.873790
-0.340295 0.224895 -0.056429 0.022354 0.789678 -0.613114
-0.212183 -0.038225 0.281080 -0.249501 -0.154517 0.955967
0.209275 0.172107 0.014465 0.230325 -0.833472 -0.502269
0.134052 0.181395 0.155314 -0.372194 0.249071 0.894112
0.096403 0.145176 -0.115551 0.922802 -0.124529 -0.364594
-0.005911 0.198931 -0.225255 -0.583309 -0.094102 0.806781
0.014652 0.137926 0.048351 -0.087826 0.424715 -0.901057
0.046473 0.036361 -0.160777 0.967394 -0.154226 -0.200905
-0.006152 -0.126404 -0.023394 0.615026 -0.760258 -0.209166
-0.256708 0.197501 0.223238 -0.023778 0.788601 0.614445
-0.164990 0.178420 0.020039 0.690681 0.601545 -0.401376
0.216191 0.214131 0.177067 0.202920 0.965651 -0.162300
-0.373592 -0.073709 0.169963 0.540479 -0.793463 0.279819
-0.059145 -0.179236 0.047647 0.343852 -0.774241 -0.531336
0.036579 0.126584 -0.190124 0.693290 -0.043753 -0.719329
-0.224348 0.229110 0.166685 0.410857 0.863447 0.292670
0.015492 0.100783 -0.199416 0.304382 -0.235029 -0.923100
-0.076554 0.107095 0.206837 0.714602 0.268113 0.646111
-0.352056 0.078177 -0.058620 -0.857581 0.022822 -0.513842
-0.160443 -0.241208 0.066692 0.661039 -0.606196 -0.442215
0.324859 0.143155 -0.063847 0.637085 -0.616255 0.462981
-0.059181 0.090239 0.198889 0.625084 0.514482 0.587008
0.304861 0.145015 -0.074347 -0.373401 0.541771 -0.753031
-0.276638 0.237274 0.173629 -0.082393 0.814065 0.574900
-0.034830 -0.140558 -0.048778 0.452638 -0.856938 -0.246528
-0.313740 -0.091655 -0.113681 0.283780 0.030652 -0.958399
-0.108207 0.090298 0.247044 0.570300 0.254767 0.780930
-0.175461 0.210464 0.085893 0.624376 0.747197 -0.227708
-0.458427 0.043344 0.050432 -0.859261 0.361301 0.362122
0.353348 0.157148 0.105805 -0.032074 -0.946686 -0.320558
-0.042075 -0.135963 -0.068271 0.347845 -0.860450 -0.372331
0.149391 0.037272 0.173277 0.494342 -0.741170 -0.454196
0.125078 0.061111 0.148881 -0.607574 -0.156282 0.778736
0.092088 0.093215 -0.105230 0.952274 -0.119541 -0.280864
0.065448 -0.013764 0.087092 0.787272 -0.093547 -0.609468
0.099549 0.202738 -0.158179 0.082711 -0.098718 -0.991672
-0.356343 0.204192 0.138660 -0.938273 0.109378 0.328147
-0.177962 -0.039999 0.283177 -0.149274 -0.092118 0.984496
-0.303644 0.152414 -0.084502 -0.448937 0.474097 -0.757422
-0.306474 -0.106112 -0.088181 0.448287 -0.663967 0.598486
-0.250436 0.167947 0.251545 0.224915 0.783146 0.579737
0.115351 0.107443 -0.020658 0.893036 -0.353322 -0.278658
-0.086966 0.161609 0.098056 0.144585 0.968400 -0.203213
0.020835 0.065263 -0.165544 -0.347141 0.693955 0.630808
-0.111929 -0.108207 -0.161726 -0.776555 -0.423127 -0.466826
-0.302867 -0.082785 0.113133 0.091775 -0.775341 0.624839
-0.411415 -0.033697 -0.014450 -0.565276 -0.508632 -0.649428
0.384703 0.199173 0.154654 0.255079 0.871159 0.419544
-0.064592 0.120433 -0.230954 -0.008775 -0.147488 -0.989025
0.230316 0.214481 0.180119 0.322425 0.930591 -0.173327
0.064118 0.152076 -0.155406 0.852311 -0.001366 -0.523034
-0.015688 0.196064 0.161137 -0.508411 0.399399 -0.762888
-0.065451 -0.237415 0.110113 0.606282 -0.760882 -0.231260
0.294815 0.184688 0.014403 0.777833 -0.453607 0.434991
-0.320946 0.076391 0.285301 0.280199 -0.640633 0.714897
-0.325640 0.175558 -0.068690 -0.017054 0.350698 -0.936333
-0.399647 -0.016308 0.130195 -0.900419 -0.264942 0.345039
-0.179238 -0.082794 0.300361 -0.070832 0.333876 0.939952
-0.112053 0.017194 -0.204948 -0.207410 -0.351590 -0.912889
0.282697 0.171633 0.062304 0.271285 -0.912855 -0.305122
-0.357262 0.105167 0.322143 0.431734 0.514751 0.740700
0.132527 0.143180 0.159923 -0.407138 0.108317 0.906921
-0.133932 -0.120985 -0.094748 -0.306750 -0.716254 -0.626805
0.271397 0.173277 0.057134 0.373389 -0.899739 -0.225945
-0.077494 -0.035144 -0.186509 -0.038600 -0.354022 -0.934440
-0.226248 0.044421 -0.125204 -0.588011 -0.368906 -0.719828
-0.048114 -0.192423 0.068814 0.562444 -0.671800 -0.482019
0.142472 0.123646 0.163816 -0.323206 -0.311892 0.893455
0.007035 0.045345 0.157216 0.678058 -0.100289 0.728135
-0.015762 0.095705 -0.214499 0.418706 -0.173848 -0.891326
-0.436075 0.113868 0.091453 0.040156 0.268527 0.962435
-0.236413 0.108253 0.306576 0.148068 -0.313867 0.937850
0.206969 0.182144 0.183076 -0.533001 0.001164 0.846114
-0.032181 0.146228 0.056944 0.004845 0.544652 -0.838648
0.133679 0.112353 0.015767 0.732234 -0.543449 -0.410484
0.123021 0.218318 -0.130696 -0.706163 0.696835 -0.125516
-0.325261 -0.075485 -0.051390 -0.691568 -0.692071 0.206812
-0.219517 -0.241747 0.057284 -0.990491 0.067703 0.119766
-0.355421 0.135945 0.190973 -0.889628 0.081257 0.449398
-0.189761 0.123122 -0.191626 0.648295 0.450124 0.614086
-0.255011 0.109704 0.302704 -0.154117 -0.497965 0.853393
-0.420124 -0.075880 0.059429 -0.280054 -0.379673 0.881713
0.326098 0.166354 0.070457 0.055449 -0.918083 -0.392491
-0.404603 0.035701 -0.055621 -0.326402 0.875614 -0.356037
-0.374842 0.177501 0.003842 -0.801258 0.386319 0.456883
-0.025425 -0.150388 0.027616 0.647716 -0.755185 -0.100793
-0.052189 -0.066787 0.210447 0.695989 -0.259280 0.669607
-0.202894 0.045662 -0.157302 -0.801026 -0.189329 -0.567902
-0.033805 0.064635 -0.183464 -0.131169 0.660773 0.739036
-0.047223 0.151732 0.183246 0.548955 0.516728 0.656993
-0.089759 -0.207638 0.102299 -0.204877 -0.961084 -0.185319
0.006802 0.176744 0.158676 0.318522 -0.327888 0.889401
-0.191025 0.106083 -0.045491 0.816441 -0.280306 -0.504830
-0.203354 -0.190264 0.097057 -0.870648 0.096892 0.482270
-0.019152 0.015742 -0.201428 0.749079 -0.380420 -0.542366
-0.163251 -0.234797 0.045110 0.310292 -0.448017 -0.838451
-0.224393 0.236788 0.157474 0.393016 0.598347 0.698226
0.266194 0.192905 0.188287 0.135376 0.988222 -0.071353
-0.147843 -0.106280 0.259969 -0.009214 -0.921658 0.387895
-0.156948 0.188258 0.057351 0.620490 0.778286 -0.096243
-0.386804 0.102180 0.126939 -0.533862 0.537985 0.652352
-0.385001 -0.055925 0.108503 -0.537697 -0.811102 -0.230206
-0.339598 -0.094450 0.080389 -0.515199 -0.832219 0.204894
-0.073001 -0.164938 0.138433 0.697166 -0.356354 0.622070
0.167478 0.208282 -0.167183 0.279373 0.752883 -0.595917
-0.216727 0.157275 0.297371 0.224256 0.040062 0.973706
-0.050307 0.000571 -0.099710 -0.123060 0.963372 0.238265
-0.118256 -0.229061 0.092911 -0.627257 -0.633428 0.453120
-0.168119 0.178666 -0.274526 0.603674 0.019472 -0.796993
0.022462 0.206600 -0.239435 -0.534855 0.308226 -0.786719
0.110355 0.158291 0.064998 0.303203 0.368122 -0.878951
-0.008844 0.149918 -0.208797 -0.415957 0.218416 0.882765
-0.040576 0.165875 -0.315802 0.441808 0.487602 -0.753027
-0.230723 -0.128547 0.084075 -0.868248 -0.456814 0.193564
-0.107597 0.075685 -0.199026 0.005914 0.553566 0.832784
-0.034591 0.109706 -0.214649 -0.348485 0.185573 0.918761
0.002471 -0.168878 0.144299 -0.580734 0.105569 0.807219
-0.240594 0.227158 -0.032877 0.423030 0.904363 -0.056333
0.307459 0.189249 0.186028 0.332507 0.570670 0.750849
-0.100126 0.191131 -0.268167 0.423466 -0.262240 -0.867126
0.136136 0.196770 -0.091872 0.386436 -0.785095 -0.484039
-0.028545 0.164629 -0.221860 -0.402497 0.320419 0.857513
-0.218199 -0.054443 0.271436 -0.542223 0.062376 0.837916
-0.177073 0.153092 -0.249822 -0.232913 0.564383 0.791975
-0.359364 0.120650 -0.051262 -0.928974 0.125399 -0.348255
-0.011066 0.197909 -0.246267 0.409898 0.400931 -0.819291
-0.120983 -0.221315 0.056026 0.247468 -0.429998 -0.868252
0.279104 0.213790 0.053513 -0.065745 0.925889 -0.372031
-0.029752 0.000592 -0.017287 -0.059481 0.975709 -0.210843
-0.444728 -0.010786 0.081955 -0.655749 -0.455922 0.601771
-0.326876 0.261358 0.118942 -0.235077 0.784434 -0.573936
-0.300977 0.219329 -0.065102 -0.092728 -0.362254 -0.927456
0.083166 0.123927 0.042177 -0.288630 0.503144 -0.814579
0.031233 -0.161926 0.148279 0.251630 0.822507 0.510063
0.345599 0.211707 0.104275 0.241186 0.896637 -0.371310
-0.153952 0.154688 0.013081 0.581251 0.503274 -0.639423
-0.402827 0.220461 -0.068433 -0.849000 -0.528327 -0.008344
-0.436740 0.077200 0.057975 -0.956100 0.099689 -0.275562
-0.050464 0.030334 0.037356 0.274480 0.817476 -0.506353
0.257709 0.205193 0.123418 -0.195331 0.926111 0.322745
-0.356944 0.209028 -0.012129 -0.438440 0.777350 0.451108
0.003493 -0.090855 0.134885 0.624019 -0.495262 0.604414
0.194410 0.127482 0.127365 0.385917 -0.822749 -0.417315
-0.438817 -0.043105 -0.011811 -0.366962 -0.121570 -0.922258
-0.231034 0.164095 -0.265070 -0.810346 -0.585640 0.019131
0.234952 0.196869 0.209382 0.086154 0.980385 0.177265
0.087743 0.106338 -0.097162 -0.912112 0.176578 0.369961
0.221719 0.125151 0.157001 0.675169 -0.552862 -0.488355
0.250434 0.148038 0.096359 0.091854 -0.918059 -0.385657
0.023236 -0.097896 -0.025886 0.753503 -0.644678 -0.128934
-0.425460 0.089214 0.002091 -0.864554 0.369638 -0.340461
0.427638 0.166820 0.084924 0.262971 -0.870907 -0.415171
0.069673 0.046686 -0.075701 -0.611136 0.749097 0.255668
-0.222020 -0.145612 0.079302 -0.754057 -0.574457 0.318431
-0.060791 0.167306 -0.242546 -0.371610 -0.647223 -0.665589
0.187394 0.231918 -0.116014 -0.306108 -0.453078 -0.837268
-0.345024 0.071527 -0.082489 -0.790417 -0.031242 -0.611771
-0.215968 -0.070104 0.275521 -0.609900 0.239540 0.755409
-0.019141 0.061030 0.066894 -0.068273 0.167239 -0.983550
-0.226458 -0.097652 -0.013845 -0.423361 -0.613655 -0.666479
0.110665 0.094513 -0.031215 0.927548 -0.279795 -0.247729
0.227364 0.223338 -0.141310 0.297894 -0.942163 0.153585
-0.027131 0.144787 -0.227550 0.642630 -0.287508 -0.710187
-0.173227 -0.253181 0.080070 0.750628 -0.365165 0.550646
-0.213899 -0.249260 0.042354 0.483823 -0.731959 -0.479740
-0.065677 -0.122214 -0.102148 0.272985 -0.897788 -0.345624
-0.418674 0.005024 0.101526 -0.766447 -0.216879 0.604584
0.068856 0.183997 0.076340 -0.288273 0.710242 -0.642226
0.269026 0.209957 0.117988 -0.157822 0.929881 0.332285
0.053169 -0.056588 0.003367 0.876680 -0.479089 -0.043644
-0.089531 0.141168 0.230568 0.628408 -0.508820 0.588392
-0.220030 0.241216 0.111239 0.601204 0.730347 -0.324263
0.090979 0.217574 0.170245 0.655696 -0.328940 0.679604
0.226943 0.107304 0.191123 -0.524870 0.325826 0.786351
-0.280469 0.200203 -0.067731 -0.457080 -0.102019 -0.883555
-0.232862 0.182301 -0.309871 0.398246 0.533965 -0.745843
0.312113 0.148857 -0.035930 0.599727 -0.622062 0.503354
0.090982 0.051022 -0.089007 0.933206 -0.331388 -0.138954
0.010859 -0.179040 0.116070 0.994207 -0.106107 0.017136
-0.195551 0.140172 0.294630 -0.058705 -0.325310 0.943783
0.124099 0.113150 -0.000882 0.835994 -0.406253 -0.368880
-0.353112 0.101277 0.240246 -0.835277 0.389032 -0.388543
0.007501 0.040941 -0.191358 0.453182 0.031804 -0.890851
-0.416081 0.005516 -0.084085 -0.919286 0.374360 -0.121520
-0.110478 0.216789 -0.231645 -0.000367 0.194602 0.980882
-0.209724 0.130178 -0.330018 -0.675454 0.502348 -0.539823
-0.137987 0.014870 -0.199462 -0.310142 -0.389207 -0.867369
-0.198875 0.207698 -0.287066 0.374340 0.897307 -0.233903
-0.375173 0.164206 0.042644 -0.967229 0.156056 -0.200287
-0.195581 -0.095986 0.290694 -0.116706 -0.822940 0.556012
-0.056042 -0.234766 0.147251 0.531670 -0.829997 -0.168618
0.419480 0.187195 0.142047 0.458257 0.824952 0.330838
-0.223044 0.223504 0.021940 0.460067 0.864629 -0.201878
-0.268388 0.185540 -0.077346 -0.445594 0.691079 -0.569083
-0.022457 0.145164 -0.213752 -0.353206 0.164911 0.920896
-0.363737 0.100932 0.156942 -0.941980 0.101399 0.319986
-0.151951 0.110806 0.001635 0.700384 -0.050921 -0.711947
-0.100015 0.038343 0.248137 0.517797 0.247429 0.818942
0.456165 0.148505 0.097245 -0.064281 -0.266080 -0.961805
-0.219862 -0.217030 0.054035 -0.994156 0.070178 0.082027
-0.098694 -0.093637 0.229706 0.426237 -0.707271 0.563995
0.024555 0.028817 0.040572 -0.226097 0.839008 -0.494919
-0.471082 -0.024779 0.059809 -0.481928 -0.870996 0.095458
0.083189 -0.071186 0.105821 0.705614 -0.320137 -0.632156
-0.272912 0.170408 0.319504 -0.539568 0.835388 0.104849
-0.135480 0.166045 0.185022 0.485559 0.859794 0.158072
-0.220295 0.139104 -0.290045 -0.161598 -0.936191 0.312143
-0.386833 -0.061514 0.127873 -0.064371 -0.941017 -0.332179
-0.173017 0.215425 0.123367 0.628345 0.767935 0.124331
-0.362830 -0.035266 -0.037324 -0.626572 -0.397275 -0.670507
-0.055527 0.135225 0.200764 0.606750 -0.568485 0.555589
-0.409544 0.090544 0.123852 -0.572054 0.519819 0.634462
-0.280578 0.191639 0.227032 -0.335108 0.631362 0.699346
0.095594 0.153237 0.148542 -0.153697 0.009884 0.988069
-0.075062 -0.187929 0.045806 0.398105 -0.672691 -0.623699
0.013958 -0.113366 0.113486 0.573139 -0.043901 0.818282
-0.249552 0.177572 -0.077164 0.282426 0.648446 -0.706932
0.227263 0.212889 0.197635 -0.725429 0.108050 0.679763
-0.226170 -0.125907 0.172402 -0.573937 -0.795746 0.193351
-0.192040 0.212883 -0.267107 -0.552876 0.831305 0.057102
-0.230549 -0.115633 0.000942 -0.613114 -0.398525 -0.682106
-0.018907 0.180639 -0.228922 -0.491222 -0.103173 0.864902
-0.017353 -0.140163 0.009370 0.649384 -0.754446 -0.095453
0.247031 0.136757 0.139358 0.251369 -0.953902 0.163968
-0.004730 -0.078858 0.148720 0.748309 -0.509170 0.425182
-0.495282 -0.005352 0.025353 -0.922488 0.176387 0.343372
0.148022 0.187451 -0.021454 -0.622478 0.649416 0.436784
-0.028402 0.139516 0.176565 0.575635 -0.096598 0.811981
-0.217894 0.078120 -0.059890 0.890392 0.082312 -0.447690
-0.019626 -0.033552 -0.172402 0.389772 -0.304789 -0.869012
-0.018891 0.201085 -0.281055 0.926186 -0.368249 0.081073
-0.038096 -0.173652 0.124518 -0.096868 -0.217250 0.971298
-0.077704 0.223692 -0.244659 -0.172689 0.870510 -0.460860
-0.070568 0.105030 0.042593 0.210068 0.219127 -0.952814
-0.252324 0.247941 0.093590 0.126581 0.969921 -0.207920
-0.069089 0.157637 0.089144 0.002730 0.949955 -0.312376
-0.109768 0.084639 -0.224445 -0.048295 -0.185724 -0.981414
-0.096873 0.170648 0.224488 -0.319689 0.827353 0.461828
0.111983 0.175406 -0.065891 -0.817851 0.417740 0.395744
-0.322451 0.133031 0.256812 -0.217217 0.886638 0.408276
-0.096269 -0.114437 0.207087 0.456667 -0.635972 0.622089
-0.047508 0.049677 -0.175075 -0.072583 0.624167 0.777912
0.008535 0.224676 0.181577 0.268842 -0.174096 0.947320
-0.021841 0.170222 0.140279 -0.553503 0.791718 -0.258488
-0.398364 0.092942 0.125824 -0.405458 0.644476 0.648270
-0.182092 0.021090 0.289441 0.122859 -0.034804 0.991814
-0.421677 0.105723 0.018961 -0.774764 0.561018 -0.291548
0.313031 0.141190 -0.065404 0.525974 -0.720020 0.452684
0.469758 0.096673 0.121360 -0.377195 -0.414528 -0.828185
-0.380181 0.085215 0.137389 -0.471610 0.678114 0.563690
0.205109 0.067732 0.220065 0.880012 -0.302979 0.365763
0.386065 0.161338 0.006119 0.221710 -0.889349 0.399878
-0.004941 0.073779 0.169491 0.432889 0.116918 0.893833
0.125480 0.160371 0.005315 -0.800606 0.366988 -0.473656
0.102859 0.049439 0.134144 0.281879 -0.602616 0.746591
0.104452 -0.039498 0.119826 0.539307 -0.019599 -0.841881
0.140600 0.181223 -0.072844 0.142784 -0.976747 -0.159934
-0.287836 0.144025 0.291168 -0.546856 0.836137 0.042705
-0.263514 0.052514 -0.117048 0.227464 -0.610900 -0.758327
0.405376 0.196341 0.125460 0.413986 0.909473 -0.038400
0.109457 0.221068 -0.144897 0.313666 0.167616 0.934622
-0.200795 0.134783 -0.285368 0.200984 -0.977392 -0.065653
-0.371531 -0.013068 0.159061 -0.349452 -0.084489 0.933137
-0.339962 -0.054347 -0.076109 -0.698874 0.298399 -0.650025
0.170218 0.133616 0.041974 0.613763 -0.700082 -0.364938
-0.273880 0.151961 -0.105146 -0.712322 0.405895 -0.572579
-0.393239 0.209401 -0.076504 -0.565799 -0.810174 0.153266
0.161221 0.172436 -0.018039 0.271828 -0.877024 -0.396154
-0.208031 0.221375 0.031477 0.408089 0.873548 -0.265289
-0.296934 0.110208 0.312630 0.706873 -0.255897 0.659430
0.017866 0.079247 -0.195196 0.411461 -0.170512 -0.895335
-0.230364 0.196511 -0.235913 -0.926146 0.212161 0.311836
0.034774 0.001580 -0.160862 0.548806 -0.758069 -0.352340
-0.189748 -0.100902 -0.074514 -0.608576 -0.654753 -0.448256
-0.215934 0.012904 -0.121633 -0.773287 -0.415278 -0.479136
0.058247 0.223336 -0.185605 -0.714665 0.102387 0.691933
0.349047 0.182610 0.036337 -0.759178 -0.081953 -0.645703
0.012571 -0.144248 0.079969 0.710838 -0.695183 -0.106910
-0.167909 -0.122149 0.222506 -0.084688 -0.828872 0.552990
0.046074 -0.051952 -0.069869 0.880513 -0.454908 -0.133251
0.017049 0.189897 -0.216811 -0.199276 0.329607 0.922848
0.145341 0.164390 0.157060 -0.353439 0.050100 0.934115
-0.141055 -0.095245 -0.135130 -0.685978 -0.518816 -0.510161
-0.215217 -0.135409 0.000650 -0.596928 -0.476999 -0.645096
-0.432657 0.131259 0.082603 -0.058991 0.806523 -0.588252
0.183906 0.215943 -0.039421 0.811878 -0.188402 -0.552593
0.253640 0.208636 0.035504 0.314930 0.928912 -0.194784
0.067391 0.053355 0.035729 -0.497535 0.421676 -0.758056
-0.264474 -0.036098 0.256765 -0.554788 -0.451955 0.698532
0.352166 0.204497 0.151916 0.077320 0.938391 0.336813
-0.030076 0.084873 -0.199542 -0.193208 0.623518 0.757559
-0.099438 0.118839 -0.218114 0.066893 0.344273 0.936483
-0.221688 0.125892 -0.310409 0.835714 -0.521322 -0.172642
-0.243476 0.233849 0.169073 0.073295 0.852855 0.516978
-0.133972 -0.201895 0.048567 0.231892 -0.646963 -0.726406
-0.206654 0.137935 -0.182160 0.643210 0.574326 0.506390
-0.264299 0.226303 0.189427 -0.016023 0.868819 0.494870
0.342559 0.151214 0.131843 0.238342 -0.965448 -0.105376
0.285008 0.213271 0.070625 -0.085373 0.987746 -0.130649
0.058565 0.036653 0.126396 0.110690 -0.398052 0.910660
-0.350228 0.090785 0.316998 0.198290 -0.481844 0.853526
0.268797 0.187884 -0.019625 0.285029 0.958518 0.001375
0.014974 -0.029282 -0.150156 0.679587 -0.396077 -0.617483
0.044735 0.231486 -0.217427 0.116925 0.904245 -0.410694
0.032544 -0.020328 -0.138472 0.637652 -0.290400 -0.713490
0.180538 0.121879 0.177623 -0.446936 -0.124672 0.885836
-0.183082 0.139240 -0.212214 0.518227 0.782232 0.345764
0.015312 0.059703 -0.189618 0.548230 -0.236344 -0.802238
0.035966 0.175286 0.077913 -0.310208 0.825817 -0.470953
-0.399810 0.131111 0.070196 -0.458249 0.661976 -0.593123
-0.272634 -0.070178 0.197531 -0.701449 -0.690922 0.174920
0.200669 0.194387 0.088510 -0.372263 0.903045 0.214312
-0.096402 0.101704 -0.217623 0.119727 0.312272 0.942418
0.248142 0.199878 0.012656 -0.233749 0.247170 -0.940355
0.082508 0.202393 0.134558 -0.357465 0.932968 -0.042312
-0.320243 0.033064 0.238998 -0.661156 -0.462858 0.590454
-0.260077 0.073760 -0.140685 0.335748 -0.377494 -0.863001
-0.377772 0.121365 0.297218 0.210253 0.768382 0.604468
0.409090 0.141388 0.128611 -0.492679 -0.776996 -0.391848
-0.340946 0.029158 0.205032 -0.672235 -0.652105 0.350513
0.141379 0.054552 0.170312 -0.683844 -0.724597 -0.085535
-0.239244 -0.254638 0.105063 -0.289622 0.902595 0.318499
0.189015 0.200360 -0.095222 0.584888 -0.740811 0.330311
-0.345167 0.166891 -0.067332 -0.723003 -0.245362 -0.645805
-0.224980 -0.134713 0.012528 -0.626637 -0.447976 -0.637687
-0.215228 0.146908 -0.183620 0.757792 0.429493 0.491210
-0.028401 0.161645 -0.246473 0.669088 -0.641774 -0.374764
0.062961 0.094050 -0.138678 -0.803244 0.150404 0.576349
-0.193939 -0.273703 0.097442 0.620570 -0.245498 0.744730
-0.355546 -0.039928 0.172789 -0.313953 0.630033 0.710275
-0.063793 0.105159 0.193916 0.734147 0.378309 0.563835
-0.204973 0.197351 -0.256325 -0.156675 0.959081 -0.235831
-0.417189 0.039779 -0.035973 -0.812377 0.254700 -0.524569
-0.310256 -0.057846 -0.095437 0.087993 0.646754 -0.757605
-0.023357 -0.112972 -0.151777 0.073569 -0.977514 -0.197620
-0.164324 -0.149215 -0.033183 -0.338791 -0.820114 -0.461121
0.307746 0.202534 0.156372 0.081171 0.960558 0.265971
-0.228047 0.095442 -0.115141 0.760881 0.447441 0.469953
-0.340592 0.237584 0.153326 -0.499981 0.026149 0.865641
-0.063912 -0.156194 -0.034441 0.286329 -0.895520 -0.340676
-0.107837 0.105047 -0.223039 -0.056615 -0.156151 -0.986109
-0.013086 -0.058993 0.170760 0.704917 -0.292881 0.645997
-0.223615 0.189634 -0.290978 0.117216 0.920812 -0.371976
0.109320 0.074152 -0.017235 0.921654 -0.340697 -0.185684
-0.368136 0.056411 0.206303 -0.902147 0.409216 -0.136649
0.095191 0.055229 0.056004 0.799861 -0.581386 0.149038
-0.095362 -0.112973 -0.175684 -0.289044 0.078313 -0.954107
-0.277897 0.239343 -0.051258 0.099887 0.950723 0.293511
-0.404524 0.007781 -0.089940 -0.242465 -0.821221 0.516534
0.067444 0.221106 0.175102 0.742972 -0.055932 0.666981
0.025745 -0.093291 0.113078 0.280852 -0.796724 0.535120
-0.402531 -0.011568 0.115701 -0.942079 -0.145280 0.302292
-0.136516 -0.005001 -0.184797 -0.434368 -0.497900 -0.750613
0.002259 -0.136048 0.063300 0.584650 -0.599984 -0.546080
-0.095400 0.124925 -0.231536 -0.007220 -0.190661 -0.981629
0.010794 0.053496 -0.157738 -0.295545 0.746561 0.596070
-0.056257 -0.038653 -0.183250 0.240193 -0.433235 -0.868686
-0.125836 -0.131748 0.203109 0.086005 -0.792252 0.604103
-0.041525 0.164963 0.126790 -0.188462 0.976750 0.102188
0.052231 0.153640 -0.173604 0.772632 -0.124613 -0.622505
0.173494 0.149016 0.169140 -0.328830 0.005770 0.944371
-0.453186 -0.024318 0.054386 -0.483961 -0.711025 0.510122
-0.231927 0.066933 -0.132345 -0.348548 -0.345034 -0.871473
0.007100 0.204745 0.169327 0.316215 -0.191029 0.929255
-0.104411 -0.170823 -0.016216 0.076649 -0.935353 -0.345311
-0.318658 -0.125275 -0.098862 0.079771 -0.527986 -0.845498
-0.247894 -0.046588 0.262694 -0.428560 -0.475354 0.768359
-0.247667 -0.087578 0.221841 -0.647892 -0.741085 0.176149
0.038900 0.178892 -0.184174 -0.724480 0.356137 0.590166
0.177073 0.234721 -0.044404 -0.426876 0.903741 0.032089
-0.134744 -0.161345 0.150698 0.066030 -0.888916 0.453286
-0.288593 0.246487 0.034589 -0.095589 0.937063 -0.335820
0.146789 0.183456 -0.063269 0.273803 -0.961783 -0.002506
0.029515 0.023315 -0.050314 -0.496649 0.846671 0.191020
-0.204259 0.157565 -0.332121 -0.758304 0.211492 -0.616642
-0.248553 0.149883 -0.123893 0.988626 0.004051 0.150339
-0.131721 -0.110310 0.234241 0.509748 -0.729487 0.456077
0.061782 0.199782 0.129458 -0.212191 0.895259 -0.391774
-0.308806 -0.111344 0.083152 -0.346121 -0.815097 0.464562
-0.233708 0.172752 0.240897 -0.025835 0.630726 0.775576
0.224052 0.196615 0.151840 0.273322 0.796883 -0.538770
-0.029317 0.126245 -0.215383 0.475713 -0.086843 -0.875303
0.069955 0.149565 -0.292050 0.580649 0.097781 -0.808261
-0.189140 0.211383 0.168300 0.466573 0.804776 0.366940
-0.050512 0.169849 -0.261018 -0.696928 -0.593672 -0.402299
-0.070023 -0.044149 0.238154 0.789004 -0.200976 0.580587
0.033497 0.047241 -0.135393 -0.461218 0.789072 0.405764
-0.018877 0.194792 -0.266922 0.971679 -0.101280 -0.213500
-0.400890 0.123683 0.026107 -0.681035 0.716019 -0.153321
-0.313756 -0.089404 0.105120 0.016796 -0.844250 0.535686
-0.068267 0.155866 -0.224616 -0.055181 0.276264 0.959496
-0.142228 -0.027873 0.276096 0.154728 0.038906 0.987191
-0.374799 0.152395 0.111631 -0.992045 0.090867 0.087121
-0.429239 -0.046117 0.033796 -0.708647 -0.673457 -0.210415
-0.260499 0.167486 0.298084 -0.144164 0.937518 -0.316666
-0.096328 0.169404 -0.245493 0.160795 -0.729925 -0.664345
-0.086541 0.164256 0.195504 -0.246674 0.787733 -0.564472
-0.252438 0.013044 0.281494 -0.345557 -0.214770 0.913490
0.056391 -0.062144 0.087459 0.746639 -0.258759 -0.612840
0.034088 -0.091628 0.054225 0.903646 -0.266250 -0.335461
0.095937 0.069149 0.001759 -0.935993 0.347294 0.057484
0.187090 0.206264 0.165928 -0.541838 0.555292 0.630922
-0.075018 0.031113 0.028824 0.240866 0.814017 -0.528545
-0.056371 0.180017 -0.287817 -0.928059 -0.367502 -0.060407
-0.003531 0.003883 -0.044672 -0.354560 0.934409 0.034167
-0.179033 0.216098 -0.255109 -0.481570 0.764353 0.428784
-0.075422 0.209369 -0.260477 -0.297444 0.612584 -0.732303
0.007876 -0.018715 -0.159859 0.582738 -0.344312 -0.736115
-0.078296 -0.166127 -0.017327 0.167882 -0.945062 -0.280487
-0.247217 -0.150148 0.043366 -0.945627 -0.311501 0.093581
0.198188 0.242728 -0.002519 -0.435221 0.691994 0.575957
0.114631 0.134035 -0.008543 -0.950088 0.261945 0.169461
-0.392293 0.206581 -0.038962 -0.364235 0.582584 0.726587
-0.198344 0.185169 0.291453 -0.694731 0.672246 -0.255800
-0.178622 -0.163517 0.144286 -0.135369 -0.864582 0.483915
0.007784 0.063635 -0.178869 -0.245973 0.698624 0.671879
-0.101217 -0.160498 -0.040663 0.074341 -0.886535 -0.456650
0.014521 0.015283 -0.008817 -0.385845 0.920311 -0.064429
-0.066992 0.036617 -0.215574 0.120997 -0.147226 -0.981674
0.111435 0.170160 -0.082301 0.717982 -0.598295 -0.355731
0.348280 0.163086 0.185151 0.252489 -0.497371 0.829983
-0.330824 -0.068396 0.126719 -0.038725 -0.749861 0.660462
-0.205346 0.050409 -0.103952 0.721792 0.557172 0.410580
-0.006701 0.167599 0.100928 -0.218428 0.961725 -0.165453
0.104918 0.210609 0.138362 -0.005257 0.211346 0.977397
-0.395711 0.021488 0.149298 -0.746966 -0.187752 0.637801
-0.188451 0.035506 -0.172226 -0.636710 -0.298445 -0.711007
-0.137557 0.020866 -0.035913 0.234341 0.955546 -0.178929
0.103266 0.207440 0.101803 -0.461823 0.841474 -0.280432
0.256758 0.177921 0.223146 0.021607 -0.208508 0.977782
0.291710 0.187259 0.003430 0.139695 0.935396 -0.324837
0.080419 0.036381 0.121770 -0.020753 -0.333735 0.942439
-0.026410 0.162023 0.162119 0.194848 0.097955 0.975930
-0.415194 0.022174 -0.088441 0.536115 0.347593 -0.769259
-0.326860 0.045602 0.244770 -0.300627 -0.696123 0.651949
-0.188899 0.172482 0.264502 0.391347 0.871705 -0.294920
-0.019609 -0.095221 0.161762 0.742025 -0.406773 0.532855
-0.206528 -0.176414 0.085102 -0.875223 -0.116287 0.469535
0.015170 -0.160916 0.134507 -0.131859 0.605754 0.784649
0.156227 0.104741 0.116853 0.532549 -0.518960 -0.668635
-0.124482 0.166512 -0.241183 0.169229 -0.770627 -0.614407
-0.256930 0.189259 -0.071636 0.133156 0.368603 -0.920001
-0.114796 0.042173 0.022833 0.291597 0.826889 -0.480859
-0.187990 0.057502 -0.011257 0.532322 0.610453 -0.586498
-0.374466 0.111992 0.318193 0.318453 0.616471 0.720105
0.059785 -0.102639 0.111937 0.482782 -0.585338 -0.651384
0.057720 -0.082498 0.085465 0.721281 -0.206467 -0.661154
-0.335557 0.215672 0.158896 -0.600879 0.319496 0.732712
-0.291406 0.199284 0.218541 -0.582075 0.470632 0.663094
-0.175035 -0.117801 -0.071926 -0.526786 -0.665457 -0.528832
0.081965 -0.048301 0.111222 -0.086190 -0.612131 0.786045
-0.226734 0.132188 -0.169794 -0.538398 -0.777147 -0.325837
0.154974 0.117847 0.045862 0.625806 -0.754341 -0.198333
-0.398527 -0.072662 0.180208 0.007340 -0.928972 0.370078
0.119139 0.199402 -0.095786 -0.705465 0.614093 0.353849
-0.368063 0.102279 -0.035617 -0.555594 0.239951 -0.796078
-0.167442 -0.178958 0.012424 -0.281768 -0.709956 -0.645422
-0.095279 0.191498 -0.244164 -0.052370 -0.103601 0.993239
0.152302 0.076278 0.142310 0.541613 -0.358474 -0.760363
0.090094 0.070978 -0.046147 -0.913253 0.367624 0.175563
0.049872 0.043056 -0.152252 0.865450 -0.199615 -0.459510
0.084702 0.176872 0.065478 0.056632 0.494031 -0.867598
0.039255 -0.094788 0.114939 -0.200509 -0.884908 0.420398
-0.249868 -0.083893 -0.024045 0.025370 -0.894722 -0.445903
-0.219289 -0.142002 0.120376 -0.639897 -0.763959 0.083056
0.032128 0.025177 0.003345 -0.375325 0.919337 -0.118113
-0.087593 0.002493 -0.206077 -0.081653 -0.514375 -0.853669
-0.155825 -0.150574 -0.041850 -0.326157 -0.810420 -0.486663
-0.246688 0.230617 -0.008644 0.254614 0.964114 -0.075209
-0.103380 0.107139 0.234347 0.568262 0.253675 0.782769
-0.199362 0.192398 -0.026758 0.765101 0.486416 -0.421923
-0.262466 0.236068 0.004667 0.154830 0.981975 -0.108411
0.365499 0.157612 0.127229 -0.092382 -0.973397 -0.209678
-0.165167 0.022282 0.287527 0.169792 0.021165 0.985253
0.056766 -0.043677 0.034013 0.864020 -0.487122 0.127210
-0.380325 -0.030804 0.158096 -0.416581 0.319307 0.851178
-0.154015 0.108123 -0.226679 0.236089 -0.308761 -0.921373
-0.360473 0.057750 0.293033 -0.234004 -0.949107 -0.210802
-0.000835 0.050014 0.168762 0.656819 0.031568 0.753387
-0.204719 0.100757 -0.145770 0.695992 0.477846 0.535965
0.037909 -0.061252 0.123521 0.380241 0.265912 0.885837
-0.094091 0.226400 -0.256701 0.780304 0.545769 -0.305390
-0.103804 0.148829 -0.237449 0.013377 -0.361293 -0.932356
0.088037 0.033974 0.026285 0.891824 -0.424394 0.156651
-0.074352 0.062422 -0.185788 -0.053848 0.549896 0.833496
0.158837 0.182495 0.016507 -0.232117 0.925410 -0.299564
-0.004704 -0.180474 0.120695 -0.496564 -0.808781 0.315114
0.012770 0.019010 0.005465 -0.307187 0.935840 -0.172742
-0.127765 -0.161709 -0.033872 -0.153744 -0.894719 -0.419334
-0.150232 -0.007910 0.281910 0.296848 -0.128389 0.946255
-0.028142 0.027305 0.037231 -0.007937 0.852104 -0.523313
-0.196225 0.155112 0.300475 -0.079555 -0.292429 0.952972
-0.280503 0.140938 0.310600 -0.533489 0.206948 0.820099
-0.230809 0.181361 -0.266440 -0.746279 -0.644034 -0.168191
-0.438529 -0.039919 0.022024 -0.250920 -0.953034 -0.169602
-0.429064 0.043554 0.097638 -0.681367 -0.054045 0.729944
-0.403304 0.044119 0.160008 -0.715347 -0.443818 0.539726
-0.338148 0.049236 -0.080932 -0.815106 -0.120454 -0.566651
-0.160727 0.077544 -0.190836 0.502005 0.596955 0.625808
-0.325144 -0.008538 0.182391 -0.667322 -0.192230 0.719534
-0.369572 -0.035617 0.165331 -0.191685 0.505484 0.841275
-0.159510 0.188238 -0.236167 -0.037063 -0.450706 0.891903
-0.318737 -0.039565 0.194409 0.036013 -0.643564 0.764544
0.001225 0.160799 0.164078 0.420094 -0.323254 0.847955
0.125176 0.090386 0.023343 0.801579 -0.535387 -0.266141
-0.392373 -0.040027 0.160762 -0.914934 0.322776 0.242302
0.004881 -0.059843 0.152581 0.676472 -0.347275 0.649450
-0.189165 0.207143 0.034635 0.665449 0.691993 -0.279862
-0.003528 0.085791 -0.195176 -0.323104 0.474301 0.818928
0.070981 -0.105609 0.150178 -0.817828 -0.392272 0.421047
0.193230 0.229954 -0.010942 -0.421504 0.862506 0.280031
-0.331149 -0.097625 0.035740 -0.366283 -0.923139 -0.116835
-0.170692 0.107828 -0.207580 -0.734783 -0.473555 -0.485633
-0.366685 0.166948 0.135023 -0.941469 0.286008 0.178426
0.018545 0.141709 -0.205196 0.343312 -0.395063 -0.852093
0.152366 0.042074 0.187814 -0.237038 0.404680 0.883203
0.071220 0.155739 -0.266897 0.021775 -0.645746 0.763242
-0.158391 -0.106721 0.253738 -0.076761 -0.928131 0.364254
-0.383057 0.212298 -0.093230 0.666736 -0.232559 -0.708081
-0.142084 0.067307 -0.182806 0.344953 0.599442 0.722272
-0.359317 0.094299 0.171574 -0.887822 0.030507 0.459174
0.069885 0.181416 -0.274759 0.431107 0.489002 -0.758303
-0.044158 0.130330 -0.219278 -0.286881 0.129703 0.949145
-0.100803 0.008475 -0.124652 0.073612 0.961347 0.265317
-0.006005 0.113936 0.158285 0.214421 0.323467 0.921625
0.078300 0.170359 -0.268328 0.440971 0.550554 -0.708826
-0.247167 0.208279 -0.264161 -0.640736 0.385094 0.664199
0.171949 0.203692 0.152084 -0.307227 0.572891 0.759874
-0.044850 0.163334 -0.298659 -0.018809 -0.876105 0.481753
-0.255591 0.121388 -0.115745 -0.517784 0.013494 -0.855405
-0.241333 -0.074336 -0.074182 0.461965 -0.376714 -0.802917
-0.191588 0.215311 0.049322 0.630083 0.741890 -0.229335
-0.228157 0.165989 -0.084694 0.235736 0.910352 -0.340130
0.068963 0.197036 0.094379 -0.291588 0.909596 -0.295991
-0.354076 0.120167 0.199113 -0.943388 0.091553 0.318805
0.199701 0.107652 0.197484 -0.447371 0.421113 0.789001
-0.418725 0.088335 -0.017016 -0.857325 0.331601 -0.393744
-0.112046 -0.156873 0.163676 -0.101198 -0.894702 0.435048
-0.147566 0.139629 0.274201 0.488802 0.138410 0.861345
-0.219074 -0.193887 0.061047 -0.883279 -0.233893 0.406341
-0.261878 -0.114548 0.085234 0.107379 -0.866254 0.487929
-0.247617 0.182746 -0.108349 0.692498 0.706197 0.147420
-0.262805 -0.023783 -0.089685 0.168418 -0.314587 -0.934168
-0.429786 0.068675 0.000774 -0.720769 0.415326 -0.554975
-0.389429 0.106003 0.322754 -0.344209 -0.191552 0.919145
-0.369551 0.082822 0.171064 -0.784604 0.404956 0.469476
0.088591 0.197066 0.158054 0.424033 -0.505678 0.751323
-0.178058 0.103334 0.283610 0.294857 -0.184665 0.937528
-0.443529 0.134223 0.083417 -0.557058 0.801905 0.215952
0.268941 0.185957 0.207581 0.400564 0.251733 0.881010
-0.426955 0.067134 0.102964 -0.944661 0.027218 0.326916
-0.264501 -0.065693 0.231412 -0.705848 -0.340111 0.621372
-0.439875 0.120831 0.075853 -0.031260 0.570485 -0.820713
0.052931 0.170977 -0.162440 -0.775381 0.192272 0.601511
-0.189683 0.221582 0.141720 0.479006 0.863071 0.160193
-0.120390 0.143691 -0.223838 0.121683 0.421255 0.898742
0.022078 -0.008944 -0.151994 0.614341 -0.521688 -0.591968
-0.077773 -0.001351 -0.060538 0.261514 0.940773 -0.215771
0.064020 0.070152 -0.133605 -0.765666 0.425962 0.481988
-0.131966 0.132202 -0.228550 0.167852 -0.317047 -0.933438
-0.334095 -0.039659 0.191237 -0.208090 -0.181874 0.961052
-0.453849 0.049808 -0.008353 -0.319858 0.943609 -0.085397
0.033173 -0.071447 -0.074472 0.660949 -0.748948 0.047144
-0.284756 0.090988 0.296725 0.003567 -0.645016 0.764161
0.170674 0.183250 0.165160 -0.254563 0.334316 0.907431
-0.163037 0.186208 0.036344 0.588590 0.716398 -0.374614
0.176660 0.189488 0.114990 0.174918 0.825019 -0.537352
-0.242190 -0.116278 0.076524 -0.513390 -0.852897 0.094855
-0.129987 0.023502 -0.203369 -0.238726 -0.399985 -0.884885
-0.241510 0.146927 0.319674 0.580141 -0.126963 0.804560
-0.370251 -0.068853 0.047224 -0.232298 -0.913793 -0.333196
0.105063 0.240557 -0.144869 0.527862 0.818864 0.225440
-0.198196 -0.080392 0.297709 -0.267583 0.228386 0.936077
-0.006866 -0.112186 -0.155515 0.666093 -0.696961 -0.265642
0.251445 0.135351 0.204729 0.674232 -0.705466 -0.218469
0.358914 0.204909 0.095798 0.181988 0.983271 -0.007596
-0.113811 0.130244 -0.231394 -0.082869 -0.193237 -0.977646
-0.334836 0.230320 0.036197 -0.506056 0.840360 -0.194170
0.096173 0.122700 -0.087208 -0.942052 0.154847 0.297591
-0.215630 -0.253583 0.028262 0.475970 -0.743012 -0.470516
-0.122941 0.206622 -0.284493 -0.141774 -0.626830 -0.766149
0.158305 0.215891 -0.160028 0.009910 0.843429 -0.537149
-0.258386 -0.099730 0.168056 -0.741138 -0.631654 0.227438
-0.383345 0.014902 0.158749 -0.534099 -0.175567 0.826991
-0.414196 -0.022761 -0.019623 -0.593616 -0.488598 -0.639446
-0.307668 -0.043411 0.178682 0.016595 -0.901635 0.432180
-0.148479 -0.075029 -0.136723 -0.685126 -0.364028 -0.630941
-0.397051 0.055647 0.305564 -0.799377 -0.171634 -0.575793
0.047425 0.191952 -0.183677 -0.741772 0.366539 0.561626
-0.202063 -0.010503 -0.123320 -0.825603 -0.402160 -0.395788
0.415767 0.139207 0.170028 0.112026 -0.519158 0.847304
-0.204296 -0.258464 0.098814 0.429426 0.021104 0.902856
-0.228012 0.160121 -0.242747 -0.859006 -0.490928 -0.145251
-0.168376 0.125163 0.290369 0.310718 -0.416213 0.854530
-0.104005 -0.086144 0.242314 0.549627 -0.697606 0.459626
0.129828 0.096164 0.037904 0.703666 -0.702662 -0.105452
0.022701 -0.164544 0.155581 -0.220233 0.699594 0.679754
-0.239858 0.227783 0.006938 0.266244 0.950142 -0.162308
0.230472 0.102018 0.180438 0.759931 -0.400119 -0.512258
0.039717 0.056481 0.141284 0.477983 -0.355426 0.803246
0.000895 -0.000053 0.164579 0.724322 -0.114575 0.679875
-0.278536 -0.070296 0.142021 -0.607646 -0.681594 0.407672
-0.449637 0.057735 0.030246 -0.527227 0.698851 -0.483362
0.430530 0.148432 0.166743 0.378815 -0.142187 0.914485
-0.019629 0.218453 0.171310 -0.626125 0.098854 -0.773431
0.025652 -0.167157 0.131553 0.521971 -0.798292 -0.300460
0.106598 0.067043 0.137144 0.070789 -0.972362 0.222486
0.225867 0.217737 0.047748 -0.142417 0.902095 0.407361
0.078154 0.105628 0.156302 -0.000186 -0.130351 0.991468
0.080898 0.022817 0.054683 0.913262 -0.346185 0.214728
-0.104939 0.162965 0.090196 0.311393 0.898259 -0.310104
0.346005 0.188217 0.185368 -0.018981 0.740102 0.672227
0.311194 0.152383 0.118080 0.149674 -0.948621 -0.278775
0.292384 0.146610 0.113249 0.201084 -0.955770 -0.214636
-0.116845 0.098126 0.248904 0.702606 0.097914 0.704810
-0.238833 0.198129 -0.295048 0.236451 0.839024 -0.490030
-0.057110 0.071013 0.212628 0.662592 0.259819 0.702471
-0.106474 0.054645 -0.217371 -0.185089 -0.285452 -0.940351
-0.264992 0.118398 -0.107159 -0.529149 0.075440 -0.845169
0.291764 0.185800 -0.008640 0.280351 0.957048 -0.073910
-0.365899 -0.061102 0.012083 -0.490238 -0.825932 -0.278395
-0.075073 0.154911 0.239352 0.645759 -0.716743 0.263203
0.063591 0.040950 -0.053497 -0.538488 0.831340 0.137493
0.049054 0.060011 -0.147162 -0.553240 0.626739 0.548747
-0.075166 -0.175387 0.131977 0.402858 -0.457500 0.792716
-0.291454 0.139304 0.281248 -0.306564 0.939771 -0.151160
-0.191224 0.100648 -0.180994 -0.655442 -0.384231 -0.650202
0.373801 0.161695 0.009165 -0.151538 -0.975416 0.160003
0.139467 0.096153 0.150427 -0.071373 0.209858 0.975123
0.461613 0.165267 0.109633 0.649821 0.755302 0.085162
-0.375235 0.229085 -0.066437 0.553059 0.708302 -0.438672
0.352873 0.211408 0.070821 0.170090 0.985428 -0.001314
-0.282053 0.139727 0.270817 -0.482230 0.866764 0.127177
-0.017615 0.235836 0.167310 -0.051458 0.653823 -0.754896
-0.163430 0.059304 -0.158447 0.604821 0.569947 0.556195
-0.157236 -0.087599 0.291529 0.162160 -0.534207 0.829655
0.012686 -0.140048 0.067603 0.459245 -0.448600 -0.766715
-0.431419 0.103515 0.096348 -0.308067 0.147234 0.939903
-0.058026 -0.101227 0.191325 0.542643 -0.627397 0.558490
-0.367560 -0.046569 -0.022365 -0.374339 -0.561658 -0.737842
-0.313277 0.238567 0.034802 -0.325515 0.913403 -0.244408
-0.137610 0.157039 0.259898 0.190769 0.176249 0.965683
0.145749 0.183519 -0.083569 0.096526 -0.917160 -0.386653
0.175388 0.184958 -0.196783 0.365748 0.490349 -0.791066
